# .PCD v0.7 - Point Cloud Data file format
VERSION 0.7
FIELDS x y z intensity
SIZE 4 4 4 4
TYPE F F F F
COUNT 1 1 1 1
WIDTH 1111
HEIGHT 1
VIEWPOINT 0 0 0 1 0 0 0
POINTS 1111
DATA ascii
0.759 -0.101 0.028000001 14
0.764 -0.083999999 0.028999999 15
0.77499998 -0.085000001 0.0060000001 12
0.77999997 -0.068999998 0.029999999 15
0.78200001 -0.067000002 0.0060000001 12
0.79000002 -0.052000001 0.030999999 15
0.79400003 -0.050000001 0.0070000002 13
0.79400003 -0.048999999 -0.016000001 13
0.79799998 -0.035 0.030999999 15
0.80500001 -0.033 0.0070000002 13
0.80500001 -0.030999999 -0.016000001 13
0.80900002 -0.028000001 -0.041000001 14
0.81699997 -0.017000001 0.033 15
0.81599998 -0.014 0.0080000004 13
0.81800002 -0.012 -0.016000001 13
0.80699998 -0.0080000004 -0.041000001 14
0.82599998 0 0.033 15
0.83399999 0.003 0.0080000004 14
0.82300001 0.0060000001 -0.016000001 14
0.84399998 0.017999999 0.035 16
0.84299999 0.023 0.0080000004 14
0.85100001 0.037 0.035 17
0.57800001 0.368 -0.033 11
0.58600003 0.37599999 -0.011 10
0.59500003 0.368 0.033 12
0.59399998 0.384 0.011 10
0.574 0.405 -0.034000002 12
0.59299999 0.38499999 0.033 11
0.57499999 0.40799999 -0.011 10
0.59200001 0.403 0.033 13
0.58600003 0.41800001 0.011 10
0.54000002 0.421 -0.032000002 11
0.58899999 0.421 0.033 12
0.57499999 0.43000001 0.011 10
0.551 0.43099999 -0.0099999998 10
0.54000002 0.44299999 -0.033 11
0.579 0.43399999 0.033 12
0.55500001 0.435 0.011 10
0.51200002 0.44 -0.030999999 11
0.55400002 0.435 0.032000002 11
0.51899999 0.44600001 -0.0099999998 10
0.50599998 0.45699999 -0.030999999 10
0.53899997 0.44299999 0.032000002 11
0.528 0.45500001 0.011 10
0.48300001 0.458 -0.029999999 11
0.48199999 0.45500001 -0.0089999996 9
0.50700003 0.456 0.030999999 10
0.493 0.46599999 0.011 9
0.43900001 0.45699999 -0.028000001 10
0.454 0.47099999 -0.0089999996 9
0.47999999 0.472 0.029999999 11
0.472 0.48800001 0.011 9
0.42199999 0.484 -0.028000001 10
0.46599999 0.479 0.028999999 9
0.44400001 0.48199999 0.0099999998 8
0.42899999 0.49000001 -0.0080000004 9
0.43599999 0.46900001 0.028000001 11
0.421 0.477 0.0099999998 9
0.38800001 0.491 -0.026000001 10
0.38999999 0.49000001 -0.0070000002 9
0.41499999 0.48899999 0.027000001 9
0.39899999 0.49700001 0.0099999998 8
0.35499999 0.49700001 -0.025 10
0.41499999 0.51200002 0.028000001 10
0.36700001 0.50700003 -0.0070000002 8
0.39500001 0.51099998 0.027000001 11
0.38299999 0.52499998 0.0099999998 9
0.338 0.52399999 -0.024 9
0.38999999 0.52700001 0.027000001 11
0.34400001 0.52600002 -0.0070000002 8
0.35800001 0.54100001 0.0099999998 9
0.32499999 0.56 -0.024 10
0.324 0.551 -0.0060000001 9
0.33899999 0.53100002 0.025 10
0.33000001 0.55299997 0.0099999998 8
0.29899999 0.57800001 -0.024 10
0.30500001 0.579 -0.0060000001 9
0.32699999 0.56699997 0.025 11
0.322 0.60000002 0.0099999998 9
0.27399999 0.58399999 -0.0049999999 9
0.28799999 0.55699998 0.023 10
0.27399999 0.57300001 0.0089999996 9
0.72100002 -0.15000001 0.066 12
0.74299997 -0.132 0.086000003 14
0.74000001 -0.13600001 0.067000002 11
0.75199997 -0.117 0.086999997 14
0.755 -0.121 0.068999998 11
0.759 -0.101 0.088 14
0.76300001 -0.105 0.07 11
0.75999999 -0.109 0.052000001 11
0.75400001 -0.111 0.033 13
0.77399999 -0.086000003 0.090999998 13
0.77600002 -0.089000002 0.071999997 11
0.77200001 -0.092 0.052999999 11
0.75999999 -0.093999997 0.033 13
0.78600001 -0.07 0.093000002 13
0.778 -0.071000002 0.071999997 11
0.78100002 -0.075000003 0.054000001 11
0.77600002 -0.077 0.034000002 14
0.79400003 -0.052999999 0.093999997 13
0.79500002 -0.055 0.074000001 11
0.79500002 -0.057999998 0.054000001 12
0.787 -0.059 0.034000002 14
0.81 -0.035999998 0.097000003 14
0.80299997 -0.037 0.075000003 12
0.80500001 -0.039999999 0.055 12
0.79699999 -0.041000001 0.034000002 14
0.81900001 -0.018999999 0.098999999 14
0.82200003 -0.02 0.077 12
0.81599998 -0.021 0.056000002 12
0.815 -0.022 0.035 15
0.83099997 -0.001 0.101 14
0.833 -0.001 0.079000004 12
0.82700002 -0.0020000001 0.057 12
0.82700002 -0.0020000001 0.035 15
0.84899998 0.017000001 0.104 15
0.84399998 0.017000001 0.079999998 12
0.83700001 0.016000001 0.057999998 12
0.838 0.017000001 0.035999998 14
0.85799998 0.035999998 0.106 15
0.861 0.037 0.082000002 12
0.852 0.035999998 0.059 12
0.84500003 0.037 0.035999998 14
0.87400001 0.056000002 0.108 15
0.87400001 0.057 0.083999999 12
0.86000001 0.057 0.059999999 3
0.88599998 0.075999998 0.111 16
0.597 0.37099999 0.052999999 10
0.59500003 0.38499999 0.032000002 11
0.59299999 0.38800001 0.054000001 10
0.59899998 0.382 0.096000001 12
0.60100001 0.39899999 0.075999998 9
0.58200002 0.417 0.033 13
0.60699999 0.40599999 0.098999999 12
0.59200001 0.428 0.056000002 11
0.597 0.41800001 0.098999999 14
0.58499998 0.42699999 0.077 10
0.57300001 0.43599999 0.055 10
0.55299997 0.43799999 0.033 11
0.583 0.428 0.097999997 13
0.57300001 0.43900001 0.077 9
0.52200001 0.43399999 0.032000002 11
0.54100001 0.43399999 0.074000001 10
0.53799999 0.44999999 0.054000001 10
0.52100003 0.456 0.033 11
0.55500001 0.44600001 0.097000003 11
0.53799999 0.45199999 0.075000003 9
0.52399999 0.46000001 0.054000001 10
0.52499998 0.44100001 0.093000002 12
0.486 0.46799999 0.033 10
0.514 0.45199999 0.093000002 11
0.51800001 0.477 0.075999998 9
0.50099999 0.48199999 0.055 10
0.458 0.463 0.050999999 9
0.44400001 0.47099999 0.032000002 10
0.49000001 0.47 0.092 10
0.47400001 0.47799999 0.072999999 8
0.46399999 0.49000001 0.072999999 9
0.454 0.50300002 0.054000001 8
0.417 0.486 0.033 6
0.47299999 0.49700001 0.093000002 11
0.42899999 0.49700001 0.071000002 9
0.42699999 0.51899999 0.054000001 9
0.40099999 0.51599997 0.034000002 10
0.42899999 0.493 0.089000002 10
0.38999999 0.495 0.068999998 9
0.384 0.51599997 0.052000001 9
0.36899999 0.52499998 0.034000002 9
0.41800001 0.52600002 0.090999998 10
0.373 0.52100003 0.07 9
0.36500001 0.54000002 0.052999999 9
0.34900001 0.55199999 0.035999998 11
0.382 0.52600002 0.088 11
0.34299999 0.52899998 0.068999998 9
0.34299999 0.56300002 0.055 9
0.32800001 0.57800001 0.037 11
0.35299999 0.53500003 0.086000003 10
0.31900001 0.54500002 0.068999998 9
0.308 0.56300002 0.054000001 8
0.28200001 0.55699998 0.035999998 10
0.33000001 0.55299997 0.086999997 10
0.30700001 0.55199999 0.068999998 8
0.27599999 0.565 0.052999999 8
0.29800001 0.55500001 0.083999999 10
0.287 0.57599998 0.071000002 8
0.28099999 0.58399999 0.086000003 10
0.76300001 -0.104 0.146 13
0.75800002 -0.112 0.12899999 14
0.79699999 -0.071000002 0.18700001 15
0.79400003 -0.079999998 0.168 11
0.78500003 -0.088 0.15000001 12
0.773 -0.094999999 0.131 13
0.80800003 -0.054000001 0.19 15
0.80599999 -0.063000001 0.171 12
0.79299998 -0.071000002 0.152 12
0.78399998 -0.077 0.132 13
0.82200003 -0.037 0.19400001 15
0.81599998 -0.045000002 0.17399999 11
0.81199998 -0.052999999 0.155 12
0.801 -0.059999999 0.13500001 14
0.829 -0.02 0.197 15
0.82800001 -0.027000001 0.177 12
0.81999999 -0.035 0.15700001 12
0.815 -0.041000001 0.13699999 14
0.84600002 -0.0020000001 0.20100001 15
0.83999997 -0.0089999996 0.18000001 12
0.829 -0.016000001 0.15899999 12
0.82800001 -0.022 0.139 14
0.85900003 0.016000001 0.206 15
0.85299999 0.0089999996 0.183 12
0.83899999 0.0020000001 0.161 12
0.84399998 -0.0020000001 0.142 15
0.87199998 0.035 0.20999999 15
0.866 0.028999999 0.18700001 12
0.85600001 0.022 0.164 12
0.85299999 0.017000001 0.14300001 15
0.87599999 0.048999999 0.19 12
0.87400001 0.043000001 0.168 12
0.86199999 0.037999999 0.145 15
0.88300002 0.068999998 0.192 3
0.87900001 0.064000003 0.17 11
0.87599999 0.059 0.148 14
0.898 0.086000003 0.17399999 6
0.88700002 0.082000002 0.15000001 13
0.90399998 0.105 0.153 10
0.60299999 0.389 0.124 13
0.62400001 0.38999999 0.19 12
0.61400002 0.39399999 0.167 10
0.611 0.403 0.147 11
0.61199999 0.40099999 0.189 14
0.60399997 0.40799999 0.167 10
0.58600003 0.419 0.125 13
0.61299998 0.421 0.192 13
0.60500002 0.42899999 0.171 12
0.59600002 0.43399999 0.149 11
0.58700001 0.44100001 0.12800001 13
0.60100001 0.43200001 0.192 13
0.58600003 0.435 0.168 11
0.58399999 0.447 0.149 11
0.56599998 0.447 0.126 11
0.58200002 0.43700001 0.189 13
0.57599998 0.44800001 0.168 9
0.55699998 0.447 0.145 9
0.55400002 0.43599999 0.183 12
0.546 0.44400001 0.163 9
0.50700003 0.442 0.118 11
0.54400003 0.44800001 0.183 12
0.52600002 0.449 0.16 9
0.51499999 0.454 0.14 10
0.51499999 0.442 0.176 11
0.493 0.47299999 0.121 12
0.50999999 0.458 0.178 11
0.50199997 0.46900001 0.16 9
0.5 0.484 0.14300001 10
0.48800001 0.45699999 0.17399999 11
0.484 0.47299999 0.15800001 10
0.44299999 0.46900001 0.115 10
0.45699999 0.48500001 0.13699999 9
0.47799999 0.48899999 0.178 13
0.472 0.50400001 0.161 10
0.454 0.505 0.14 9
0.43700001 0.509 0.12 10
0.44800001 0.5 0.175 12
0.43700001 0.51099998 0.15700001 9
0.428 0.52399999 0.14 10
0.403 0.51700002 0.118 10
0.39899999 0.51200002 0.13500001 9
0.41999999 0.51200002 0.17299999 11
0.41 0.52499998 0.156 9
0.36399999 0.51800001 0.115 11
0.368 0.52100003 0.133 9
0.391 0.52100003 0.17 11
0.37900001 0.53399998 0.154 9
0.333 0.52399999 0.114 10
0.33700001 0.52700001 0.131 9
0.36399999 0.53299999 0.168 10
0.354 0.54900002 0.154 8
0.30700001 0.54000002 0.115 10
0.31299999 0.54299998 0.132 9
0.33199999 0.53500003 0.164 11
0.32300001 0.55500001 0.152 9
0.31 0.56900001 0.13699999 9
0.287 0.56599998 0.118 10
0.32100001 0.57099998 0.171 11
0.303 0.58099997 0.155 9
0.30199999 0.59899998 0.175 11
0.82700002 -0.033 0.26199999 17
0.83099997 -0.013 0.26300001 4
0.80000001 0.18099999 0.33000001 5
0.80599999 0.2 0.33500001 17
0.80400002 0.21799999 0.33700001 17
0.78500003 0.23100001 0.33199999 17
0.80400002 0.23199999 0.31400001 9
0.77499998 0.24600001 0.331 17
0.78600001 0.245 0.31 8
0.75800002 0.25799999 0.32600001 15
0.78799999 0.26499999 0.31299999 12
0.79299998 0.26199999 0.29100001 8
0.755 0.27599999 0.32800001 16
0.76200002 0.27599999 0.30599999 10
0.78100002 0.27900001 0.289 7
0.74400002 0.28999999 0.32600001 17
0.76300001 0.29499999 0.30899999 12
0.76700002 0.294 0.287 10
0.72899997 0.30199999 0.32300001 16
0.74299997 0.30599999 0.30399999 11
0.75 0.30700001 0.28299999 10
0.78799999 0.322 0.273 5
0.73199999 0.32100001 0.32800001 15
0.73500001 0.322 0.30399999 11
0.736 0.322 0.28099999 11
0.75099999 0.329 0.264 9
0.71100003 0.33000001 0.322 14
0.72500002 0.33700001 0.30399999 12
0.736 0.34200001 0.285 11
0.74599999 0.34799999 0.26499999 15
0.704 0.34599999 0.32300001 15
0.70499998 0.347 0.29899999 11
0.71399999 0.352 0.28 10
0.73699999 0.36500001 0.26499999 15
0.69099998 0.35699999 0.31999999 14
0.69300002 0.361 0.29800001 12
0.70200002 0.366 0.278 12
0.713 0.375 0.25999999 15
0.68199998 0.37200001 0.31999999 14
0.68699998 0.377 0.29899999 12
0.68400002 0.37799999 0.27500001 12
0.69999999 0.38999999 0.259 14
0.66900003 0.38299999 0.31799999 14
0.66799998 0.38600001 0.29499999 12
0.67400002 0.39300001 0.27500001 11
0.676 0.398 0.25400001 15
0.66100001 0.39700001 0.31900001 14
0.66500002 0.40400001 0.29800001 12
0.66000003 0.405 0.27399999 12
0.65499997 0.40700001 0.25 14
0.64899999 0.40900001 0.31799999 14
0.64499998 0.41299999 0.294 11
0.639 0.41299999 0.26899999 10
0.625 0.41 0.243 13
0.639 0.42199999 0.31799999 14
0.63 0.42199999 0.29100001 11
0.625 0.42399999 0.26800001 11
0.61900002 0.42699999 0.245 14
0.62800002 0.435 0.317 13
0.61500001 0.433 0.289 10
0.61000001 0.435 0.266 11
0.60500002 0.44 0.244 13
0.61500001 0.44499999 0.315 13
0.60900003 0.449 0.29100001 11
0.58700001 0.44 0.26100001 7
0.57300001 0.43799999 0.236 9
0.597 0.45199999 0.31099999 13
0.57599998 0.44499999 0.28 6
0.56699997 0.44600001 0.257 9
0.54699999 0.43900001 0.23 10
0.58499998 0.463 0.31 12
0.56699997 0.45899999 0.28200001 9
0.54799998 0.45199999 0.25299999 9
0.52399999 0.442 0.22499999 10
0.56800002 0.46900001 0.30700001 11
0.55599999 0.47 0.28099999 9
0.52999997 0.458 0.25 6
0.51599997 0.45699999 0.226 11
0.565 0.48699999 0.31099999 12
0.52600002 0.465 0.27200001 5
0.51800001 0.46900001 0.25 9
0.5 0.46399999 0.22499999 11
0.52499998 0.47299999 0.294 8
0.51899999 0.47999999 0.27399999 9
0.50099999 0.47499999 0.24699999 8
0.49200001 0.47999999 0.227 11
0.51300001 0.48199999 0.294 7
0.50800002 0.49200001 0.27399999 10
0.49599999 0.49200001 0.25099999 10
0.46700001 0.477 0.221 9
0.50800002 0.498 0.29699999 8
0.5 0.50599998 0.27599999 10
0.46599999 0.48500001 0.242 7
0.46900001 0.50300002 0.228 11
0.47099999 0.48199999 0.28099999 9
0.47400001 0.50099999 0.26800001 6
0.46599999 0.50700003 0.248 8
0.454 0.51200002 0.228 11
0.49200001 0.52600002 0.301 12
0.46900001 0.51899999 0.27200001 9
0.456 0.51999998 0.249 9
0.46799999 0.52200001 0.29300001 13
0.447 0.51800001 0.266 8
0.43399999 0.51999998 0.245 8
0.421 0.52200001 0.22400001 11
0.45199999 0.52700001 0.28999999 12
0.43399999 0.52499998 0.26499999 10
0.42300001 0.52999997 0.245 8
0.398 0.51899999 0.219 7
0.44 0.53500003 0.28999999 12
0.421 0.53299999 0.26499999 9
0.39199999 0.537 0.223 11
0.40400001 0.53600001 0.26199999 10
0.39500001 0.546 0.245 10
0.38299999 0.55199999 0.226 11
0.414 0.55000001 0.28799999 12
0.39700001 0.551 0.26499999 10
0.40400001 0.56099999 0.289 12
0.38299999 0.55800003 0.264 10
0.373 0.56900001 0.248 10
0.34299999 0.54900002 0.219 10
0.39199999 0.56999999 0.289 9
0.37200001 0.56800002 0.266 10
0.33199999 0.56199998 0.222 11
0.37900001 0.57700002 0.28799999 7
0.354 0.56900001 0.26199999 8
0.345 0.583 0.248 8
0.35100001 0.56 0.27599999 7
0.35100001 0.59299999 0.27000001 9
0.33399999 0.56 0.27200001 9
0.322 0.57300001 0.25799999 6
0.31900001 0.59899998 0.266 8
0.88200003 0.021 0.51599997 6
0.88999999 -0.001 0.48899999 4
0.88800001 0.039999999 0.52100003 7
0.87599999 0.017999999 0.48199999 6
0.86400002 0.057999998 0.509 6
0.88 0.037 0.48500001 5
0.917 0.017999999 0.47499999 0
0.85299999 0.075000003 0.50400001 3
0.85900003 0.055 0.47499999 5
0.89399999 0.037999999 0.46399999 4
0.85000002 0.093000002 0.50400001 0
0.847 0.072999999 0.47 8
0.89300001 0.057999998 0.46399999 5
0.83099997 0.090000004 0.463 8
0.89300001 0.079000004 0.46599999 6
0.81300002 0.107 0.45500001 9
0.82599998 0.092 0.43200001 11
0.85399997 0.079999998 0.417 5
0.81900001 0.126 0.46000001 8
0.81900001 0.11 0.43000001 11
0.83399999 0.097999997 0.40900001 11
0.81900001 0.14399999 0.46200001 5
0.81800002 0.12899999 0.43099999 10
0.82700002 0.117 0.40700001 13
0.80000001 0.15899999 0.454 2
0.81599998 0.148 0.43200001 10
0.81300002 0.134 0.40099999 10
0.80199999 0.178 0.458 0
0.79799998 0.163 0.42500001 8
0.80900002 0.154 0.40099999 12
0.80699998 0.184 0.433 8
0.796 0.171 0.39700001 10
0.79299998 0.2 0.428 8
0.79900002 0.191 0.40099999 13
0.78799999 0.21799999 0.428 4
0.78500003 0.208 0.396 13
0.77999997 0.235 0.42699999 5
0.78399998 0.227 0.39899999 14
0.75700003 0.23899999 0.389 9
0.76099998 0.26100001 0.39399999 13
0.75199997 0.278 0.39300001 7
0.75700003 0.30000001 0.40000001 3
0.74599999 0.317 0.398 1
0.50400001 0.49900001 0.43200001 14
0.45100001 0.465 0.39399999 4
0.45899999 0.484 0.382 2
0.42500001 0.45699999 0.38 8
0.433 0.477 0.36899999 4
0.44100001 0.495 0.35699999 3
0.43700001 0.50300002 0.338 4
0.412 0.46200001 0.377 9
0.412 0.47400001 0.36000001 5
0.41 0.48300001 0.34200001 5
0.41600001 0.50300002 0.331 8
0.39500001 0.47600001 0.35499999 9
0.39700001 0.48899999 0.34099999 6
0.40000001 0.50800002 0.329 8
0.37900001 0.463 0.36399999 7
0.38600001 0.486 0.35699999 8
0.382 0.49399999 0.338 8
0.38800001 0.51700002 0.329 6
0.373 0.491 0.354 9
0.373 0.505 0.34 6
0.38499999 0.53899997 0.33899999 5
0.366 0.48800001 0.37099999 9
0.36199999 0.49900001 0.35499999 7
0.37 0.52700001 0.34999999 3
0.382 0.56300002 0.34799999 4
0.35100001 0.50800002 0.35600001 7
0.36399999 0.54400003 0.35600001 3
0.35100001 0.51099998 0.377 10
0.35499999 0.53799999 0.37099999 3
0.34999999 0.55800003 0.37900001 0
0.345 0.551 0.39500001 4
0.95200002 -0.154 0.77600002 9
0.99299997 -0.14 0.80900002 1
0.96499997 -0.115 0.78500003 3
0.46700001 0.44400001 0.47400001 0
0.486 0.46799999 0.46599999 1
0.44 0.43399999 0.48500001 0
0.442 0.44100001 0.45899999 1
0.44600001 0.44999999 0.43799999 3
0.42399999 0.43099999 0.505 2
0.42899999 0.442 0.48300001 2
0.43000001 0.449 0.458 1
0.42500001 0.44999999 0.42899999 4
0.40900001 0.433 0.498 2
0.40799999 0.44 0.47099999 2
0.40799999 0.44600001 0.44600001 2
0.40200001 0.447 0.417 6
0.391 0.43200001 0.48699999 1
0.391 0.44 0.46200001 2
0.40700001 0.465 0.456 7
0.39199999 0.45699999 0.41800001 7
0.38 0.43799999 0.484 2
0.382 0.449 0.463 5
0.38499999 0.46000001 0.44400001 2
0.37 0.45199999 0.40700001 7
0.373 0.44800001 0.486 1
0.375 0.461 0.46700001 8
0.37 0.46399999 0.43900001 3
0.361 0.45199999 0.48199999 1
0.36500001 0.46900001 0.46599999 8
0.36199999 0.47600001 0.44299999 2
0.34900001 0.47 0.40900001 6
0.35600001 0.46599999 0.48800001 2
0.35100001 0.47099999 0.46200001 5
0.34999999 0.48300001 0.442 3
0.345 0.47 0.48500001 3
0.34400001 0.484 0.46700001 3
0.345 0.49900001 0.44999999 2
0.33700001 0.50300002 0.42500001 6
0.336 0.479 0.486 1
0.333 0.491 0.46700001 3
0.33700001 0.51200002 0.45500001 1
0.331 0.52100003 0.435 3
0.33700001 0.50300002 0.50199997 0
0.333 0.51599997 0.48300001 2
0.33500001 0.53600001 0.47099999 3
0.345 0.57200003 0.472 0
0.34400001 0.53600001 0.528 0
0.33500001 0.54400003 0.50199997 1
0.33000001 0.55599999 0.48199999 1
0.33700001 0.551 0.53500003 0
0.32699999 0.55800003 0.50800002 0
0.74599999 -0.171 0.81099999 14
0.75999999 -0.15800001 0.824 4
0.866 -0.161 0.93699998 5
0.84399998 -0.19 0.84899998 12
0.90200001 -0.148 0.97600001 10
0.79500002 -0.161 0.79699999 7
0.91100001 -0.13 0.98299998 3
0.87300003 -0.15800001 0.87099999 2
0.92000002 -0.19599999 0.85600001 10
0.93199998 -0.148 0.92900002 8
0.85600001 -0.163 0.79299998 8
0.93599999 -0.12800001 0.93099999 1
0.903 -0.15099999 0.83399999 1
0.97500002 -0.189 0.83899999 11
0.91299999 -0.155 0.78200001 8
0.91399997 -0.111 0.83899999 3
0.93199998 -0.114 0.792 9
0.41299999 0.433 0.52100003 0
0.39500001 0.435 0.51300001 1
0.38100001 0.43900001 0.509 0
0.36700001 0.44400001 0.505 0
0.35699999 0.45300001 0.50599998 0
0.35299999 0.46900001 0.51700002 0
0.336 0.47 0.50999999 1
0.34200001 0.50300002 0.53799999 0
0.73699999 -0.171 0.80000001 11
0.75599998 -0.15800001 0.81699997 3
0.84899998 -0.19 0.84299999 13
0.85799998 -0.16 0.92299998 3
0.80699998 -0.161 0.79799998 8
0.912 -0.149 0.977 10
0.90200001 -0.15800001 0.88599998 2
0.90499997 -0.127 0.96600002 4
0.96499997 -0.147 0.94400001 10
0.79100001 -0.167 0.79400003 13
0.84899998 -0.15899999 0.84799999 1
0.93199998 -0.152 0.92699999 10
0.93300003 -0.13 0.92299998 1
0.97399998 -0.198 0.87199998 11
0.75300002 -0.17399999 0.80400002 12
0.81400001 -0.16599999 0.79100001 12
0.884 -0.15800001 0.787 12
0.764 -0.15899999 0.81099999 4
0.87 -0.15700001 0.84100002 1
0.98900002 -0.153 0.87599999 2
0.84799999 -0.15700001 0.89399999 1
0.972 -0.153 0.935 8
0.98299998 -0.12899999 0.86699998 6
0.89999998 -0.147 0.94599998 10
0.94700003 -0.127 0.90799999 2
0.93199998 -0.1 0.81900001 1
0.91399997 -0.12899999 0.95499998 4
0.398 0.44 0.52499998 0
0.38600001 0.447 0.523 0
0.37099999 0.449 0.51599997 0
0.35600001 0.45199999 0.50999999 0
0.34999999 0.46599999 0.51700002 0
0.34400001 0.479 0.52399999 0
0.33700001 0.493 0.53100002 0
0.99199998 -0.18099999 0.82200003 10
0.99900001 -0.148 0.76499999 7
0.94400001 -0.191 0.847 10
0.93699998 -0.15000001 0.773 6
0.87300003 -0.15800001 0.77899998 13
0.96600002 -0.154 0.85799998 1
0.96100003 -0.111 0.78600001 5
0.92500001 -0.107 0.81300002 8
0.47799999 0.46000001 0.46700001 1
0.45100001 0.454 0.44999999 4
0.47499999 0.454 0.48100001 0
0.428 0.45100001 0.43799999 4
0.44499999 0.44400001 0.46000001 1
0.41 0.45199999 0.43099999 3
0.42899999 0.449 0.454 2
0.396 0.45699999 0.42699999 4
0.454 0.447 0.48199999 0
0.41600001 0.45500001 0.44999999 2
0.38 0.46000001 0.421 4
0.40799999 0.41999999 0.442 0
0.398 0.456 0.442 3
0.361 0.45699999 0.412 10
0.47400001 0.456 0.51099998 1
0.41800001 0.45100001 0.463 2
0.38800001 0.465 0.44100001 2
0.34999999 0.465 0.412 9
0.442 0.44600001 0.486 0
0.40900001 0.461 0.463 4
0.36399999 0.45699999 0.426 2
0.35299999 0.491 0.428 4
0.417 0.44 0.46799999 1
0.391 0.46200001 0.454 3
0.35499999 0.46700001 0.42699999 2
0.34200001 0.49900001 0.42899999 4
0.403 0.44499999 0.461 3
0.37400001 0.463 0.44600001 3
0.35699999 0.49200001 0.442 3
0.333 0.51099998 0.433 4
0.38699999 0.44800001 0.45300001 3
0.359 0.46599999 0.43900001 3
0.345 0.498 0.44100001 3
0.329 0.53100002 0.44400001 4
0.37900001 0.46000001 0.45500001 3
0.354 0.48100001 0.44499999 3
0.338 0.51300001 0.44600001 2
0.33500001 0.56699997 0.46799999 1
0.368 0.46900001 0.45300001 4
0.34299999 0.49000001 0.44499999 2
0.33399999 0.53399998 0.45699999 3
0.35800001 0.479 0.45300001 4
0.33899999 0.509 0.454 2
0.33500001 0.56199998 0.47499999 1
0.35600001 0.5 0.463 4
0.33700001 0.53200001 0.46599999 2
0.331 0.58600003 0.48800001 1
0.34599999 0.50999999 0.463 4
0.333 0.55299997 0.477 2
0.333 0.51599997 0.46000001 3
0.329 0.57499999 0.48800001 1
0.329 0.53799999 0.47 3
0.32800001 0.565 0.48500001 3
0.88 0.016000001 0.486 6
0.88999999 0.037 0.491 6
0.89499998 0.068000004 0.46399999 6
0.875 0.023 0.51300001 4
0.86699998 0.056000002 0.47799999 5
0.86699998 0.086999997 0.45100001 6
0.86799997 0.043000001 0.509 6
0.86000001 0.075000003 0.47499999 6
0.83099997 0.103 0.43200001 15
0.85600001 0.061000001 0.50199997 6
0.833 0.092 0.46000001 8
0.82599998 0.123 0.43099999 14
0.84299999 0.079000004 0.49399999 5
0.82499999 0.11 0.45699999 9
0.82099998 0.142 0.43000001 13
0.838 0.097999997 0.491 2
0.82599998 0.13 0.458 8
0.81400001 0.16 0.428 12
0.83999997 0.117 0.493 0
0.82300001 0.149 0.458 8
0.79799998 0.177 0.421 11
0.833 0.171 0.465 6
0.79799998 0.197 0.42300001 10
0.80000001 0.183 0.44800001 4
0.79400003 0.21600001 0.42399999 8
0.78600001 0.233 0.42199999 8
0.76800001 0.248 0.41600001 4
0.77899998 0.27200001 0.42500001 0
0.41999999 0.498 0.338 8
0.43900001 0.49399999 0.35100001 3
0.403 0.5 0.33399999 9
0.41800001 0.49200001 0.34299999 8
0.39300001 0.51099998 0.33500001 9
0.40000001 0.49399999 0.33700001 9
0.38299999 0.523 0.33700001 7
0.39199999 0.50700003 0.34 9
0.40000001 0.48899999 0.34200001 7
0.375 0.509 0.33500001 6
0.373 0.56099999 0.34999999 4
0.36399999 0.51800001 0.33500001 5
0.37900001 0.60000002 0.37 0
0.403 0.48500001 0.34400001 7
0.37599999 0.505 0.33899999 6
0.36700001 0.54900002 0.34900001 3
0.38800001 0.491 0.34 10
0.36700001 0.51800001 0.34099999 5
0.37099999 0.583 0.36500001 0
0.38 0.50400001 0.34200001 11
0.36300001 0.53799999 0.34799999 3
0.36500001 0.50800002 0.33700001 10
0.368 0.574 0.36399999 1
0.359 0.52499998 0.34200001 5
0.36300001 0.55900002 0.35699999 3
0.80800003 0.191 0.338 11
0.80599999 0.226 0.32300001 10
0.79000002 0.25299999 0.303 8
0.78500003 0.28400001 0.287 9
0.80599999 0.20900001 0.338 15
0.78899997 0.23999999 0.31799999 10
0.78100002 0.271 0.301 11
0.76999998 0.29899999 0.28400001 10
0.801 0.227 0.33700001 15
0.78899997 0.25999999 0.31999999 13
0.77200001 0.287 0.30000001 11
0.75599998 0.31400001 0.28200001 11
0.78799999 0.242 0.33199999 16
0.77999997 0.27700001 0.317 12
0.76099998 0.30399999 0.29800001 13
0.74400002 0.33000001 0.28 15
0.78200001 0.259 0.331 16
0.76099998 0.289 0.31099999 12
0.745 0.317 0.294 11
0.73299998 0.34599999 0.27900001 14
0.755 0.26899999 0.31999999 13
0.75400001 0.30599999 0.31 12
0.727 0.33000001 0.289 11
0.71899998 0.361 0.27700001 15
0.75599998 0.28799999 0.322 15
0.73900002 0.31999999 0.30599999 12
0.72299999 0.34799999 0.28999999 11
0.69400001 0.36899999 0.271 14
0.75400001 0.30700001 0.32300001 15
0.722 0.33199999 0.30199999 12
0.69999999 0.35800001 0.28400001 11
0.68900001 0.38699999 0.27200001 15
0.727 0.315 0.31299999 16
0.70899999 0.34599999 0.29800001 11
0.69700003 0.377 0.28600001 11
0.676 0.40099999 0.271 15
0.71799999 0.33000001 0.31099999 16
0.69999999 0.361 0.29699999 11
0.68000001 0.38800001 0.28200001 12
0.65700001 0.41100001 0.26699999 15
0.70499998 0.34299999 0.30700001 14
0.68699998 0.375 0.294 12
0.66399997 0.39899999 0.27900001 11
0.63599998 0.419 0.26300001 13
0.69300002 0.35699999 0.30399999 14
0.68000001 0.391 0.294 12
0.64999998 0.412 0.27700001 12
0.61799997 0.428 0.259 14
0.68300003 0.37200001 0.30199999 15
0.66299999 0.40099999 0.28999999 12
0.63099998 0.41999999 0.27200001 10
0.60500002 0.44 0.25799999 14
0.67400002 0.38600001 0.30000001 15
0.65100002 0.41499999 0.28799999 11
0.616 0.43099999 0.27000001 11
0.59200001 0.45300001 0.257 12
0.65899998 0.398 0.296 14
0.63099998 0.42300001 0.28200001 11
0.60699999 0.44600001 0.27000001 11
0.56 0.449 0.248 12
0.64999998 0.412 0.29499999 15
0.62099999 0.43599999 0.28099999 11
0.579 0.447 0.26199999 10
0.542 0.45699999 0.245 12
0.63700002 0.42500001 0.292 14
0.60600001 0.447 0.27900001 11
0.55900002 0.45300001 0.257 9
0.51899999 0.458 0.23899999 10
0.62099999 0.43399999 0.287 14
0.58200002 0.44999999 0.271 8
0.54799998 0.465 0.257 10
0.51499999 0.477 0.243 12
0.60900003 0.447 0.285 14
0.56800002 0.461 0.26899999 9
0.52600002 0.46700001 0.25099999 9
0.49700001 0.48199999 0.23999999 11
0.588 0.45300001 0.27900001 13
0.551 0.46799999 0.26499999 9
0.48100001 0.48899999 0.23800001 12
0.56699997 0.45699999 0.27200001 12
0.52999997 0.47099999 0.259 8
0.49700001 0.48500001 0.24699999 10
0.472 0.50199997 0.23899999 11
0.55400002 0.46700001 0.27000001 12
0.514 0.479 0.25600001 10
0.48899999 0.49900001 0.249 11
0.46200001 0.51499999 0.23999999 12
0.537 0.47400001 0.266 12
0.49900001 0.48699999 0.25400001 10
0.51099998 0.47299999 0.257 12
0.46000001 0.51499999 0.245 11
0.43000001 0.52600002 0.236 11
0.50199997 0.486 0.25600001 12
0.47299999 0.50599998 0.25 8
0.447 0.52499998 0.244 10
0.48800001 0.495 0.25400001 12
0.461 0.51599997 0.25 9
0.40000001 0.53899997 0.234 11
0.47099999 0.5 0.25 11
0.44499999 0.52200001 0.24600001 10
0.40599999 0.52399999 0.234 7
0.46200001 0.514 0.25 12
0.42699999 0.52499998 0.242 9
0.366 0.54500002 0.229 12
0.45100001 0.52499998 0.249 12
0.38499999 0.546 0.235 10
0.428 0.52200001 0.242 11
0.40599999 0.54900002 0.243 10
0.373 0.55599999 0.236 10
0.34099999 0.56099999 0.229 10
0.41 0.52399999 0.237 10
0.32499999 0.565 0.228 11
0.40700001 0.546 0.242 11
0.37599999 0.56099999 0.23899999 10
0.34 0.56099999 0.23 9
0.32100001 0.588 0.234 11
0.39199999 0.55199999 0.23899999 11
0.361 0.56599998 0.237 10
0.33199999 0.579 0.234 10
0.31900001 0.58600003 0.234 10
0.361 0.56199998 0.233 11
0.33500001 0.58200002 0.235 9
0.33199999 0.574 0.23 11
0.77999997 -0.079000004 0.15099999 15
0.78299999 -0.072999999 0.171 13
0.79299998 -0.061000001 0.153 14
0.79299998 -0.056000002 0.17299999 14
0.80599999 -0.041999999 0.156 14
0.79500002 -0.052000001 0.192 14
0.81400001 -0.037999999 0.177 12
0.82200003 -0.023 0.15800001 14
0.80500001 -0.052000001 0.214 15
0.82099998 -0.035 0.198 12
0.82700002 -0.02 0.17900001 12
0.838 -0.0040000002 0.161 15
0.81900001 -0.035 0.21600001 16
0.83499998 -0.017000001 0.2 12
0.83499998 0 0.18000001 12
0.84600002 0.016000001 0.162 15
0.829 -0.017000001 0.21799999 16
0.84399998 0.001 0.20200001 12
0.84799999 0.017999999 0.183 12
0.861 0.037 0.16500001 15
0.84600002 0 0.221 16
0.86000001 0.02 0.205 12
0.85900003 0.039000001 0.185 12
0.86799997 0.057999998 0.167 15
0.85600001 0.018999999 0.223 17
0.86699998 0.039999999 0.206 12
0.87400001 0.059999999 0.18799999 12
0.88599998 0.079999998 0.171 14
0.86299998 0.037 0.22400001 17
0.86699998 0.059999999 0.206 8
0.87599999 0.081 0.18799999 4
0.898 0.103 0.17299999 1
0.59399998 0.40000001 0.138 13
0.60799998 0.39899999 0.149 12
0.59500003 0.41 0.148 11
0.58899999 0.43799999 0.142 13
0.59399998 0.43099999 0.15000001 12
0.57499999 0.449 0.141 12
0.58499998 0.412 0.154 11
0.58700001 0.44600001 0.15099999 12
0.54799998 0.44999999 0.13699999 11
0.60000002 0.40700001 0.162 13
0.59600002 0.44 0.15899999 12
0.57099998 0.45500001 0.149 11
0.52499998 0.45199999 0.134 11
0.59100002 0.421 0.16 12
0.579 0.449 0.156 11
0.54400003 0.45500001 0.14399999 9
0.50099999 0.45199999 0.131 11
0.58499998 0.43599999 0.16 13
0.56199998 0.456 0.153 10
0.51599997 0.45199999 0.139 10
0.57099998 0.44600001 0.15800001 14
0.53200001 0.45199999 0.147 9
0.48699999 0.48300001 0.134 13
0.55299997 0.45300001 0.155 11
0.50999999 0.454 0.14300001 10
0.49399999 0.47499999 0.139 10
0.51899999 0.44499999 0.147 11
0.49599999 0.463 0.142 10
0.44100001 0.48100001 0.12800001 11
0.50700003 0.45500001 0.145 11
0.45199999 0.477 0.133 9
0.47099999 0.48199999 0.14 9
0.42399999 0.509 0.13 11
0.486 0.477 0.14300001 11
0.43900001 0.509 0.13500001 9
0.442 0.495 0.13600001 8
0.39399999 0.51899999 0.12800001 11
0.456 0.491 0.139 10
0.403 0.514 0.131 9
0.37900001 0.52499998 0.12800001 11
0.414 0.509 0.134 10
0.35600001 0.51899999 0.124 11
0.43700001 0.51499999 0.138 10
0.37099999 0.52100003 0.12800001 10
0.384 0.51999998 0.13 10
0.32699999 0.528 0.123 10
0.405 0.52399999 0.133 11
0.33899999 0.52600002 0.125 9
0.347 0.51800001 0.125 9
0.30199999 0.54299998 0.123 11
0.37200001 0.52999997 0.12800001 11
0.31200001 0.537 0.123 9
0.32100001 0.52999997 0.123 9
0.28099999 0.56599998 0.126 11
0.338 0.53200001 0.122 10
0.289 0.55599999 0.124 9
0.29800001 0.54699999 0.122 9
0.31200001 0.546 0.12 10
0.27700001 0.56999999 0.123 9
0.29100001 0.56699997 0.12 10
0.74599999 -0.126 0.089000002 12
0.75700003 -0.122 0.068000004 11
0.75099999 -0.115 0.046999998 13
0.75099999 -0.109 0.088 12
0.76300001 -0.105 0.068000004 11
0.75999999 -0.097000003 0.046999998 13
0.76999998 -0.103 0.111 13
0.773 -0.094999999 0.090000004 11
0.77100003 -0.086999997 0.068999998 11
0.773 -0.079999998 0.048 14
0.77200001 -0.086000003 0.11 13
0.78100002 -0.078000002 0.090000004 11
0.78500003 -0.07 0.068999998 12
0.78200001 -0.07 0.111 15
0.78799999 -0.059999999 0.090000004 11
0.796 -0.052999999 0.07 12
0.792 -0.044 0.048 14
0.79400003 -0.052999999 0.111 14
0.801 -0.043000001 0.090999998 12
0.80500001 -0.034000002 0.07 12
0.815 -0.026000001 0.050000001 14
0.80900002 -0.037 0.113 14
0.81999999 -0.025 0.093000002 12
0.81599998 -0.016000001 0.071000002 12
0.81999999 -0.0060000001 0.050000001 14
0.81800002 -0.018999999 0.113 14
0.82300001 -0.0070000002 0.093000002 12
0.82599998 0.0020000001 0.071000002 12
0.829 0.013 0.050000001 14
0.82700002 -0.001 0.113 14
0.838 0.011 0.093999997 12
0.83700001 0.022 0.071999997 12
0.85000002 0.034000002 0.052000001 15
0.84299999 0.016000001 0.115 15
0.85399997 0.029999999 0.094999999 12
0.85299999 0.041999999 0.072999999 12
0.85900003 0.055 0.052000001 15
0.85000002 0.035 0.115 15
0.86299998 0.050000001 0.094999999 12
0.86199999 0.063000001 0.074000001 12
0.86799997 0.055 0.116 15
0.87599999 0.071000002 0.096000001 12
0.87300003 0.075000003 0.116 16
0.87400001 0.090999998 0.096000001 1
0.87800002 0.093999997 0.116 16
0.583 0.39199999 0.045000002 12
0.58499998 0.389 0.055 10
0.57300001 0.426 0.046999998 13
0.60600001 0.38999999 0.074000001 11
0.597 0.412 0.066 9
0.588 0.43200001 0.057 11
0.56400001 0.44100001 0.046999998 11
0.59799999 0.405 0.072999999 11
0.53600001 0.43900001 0.046 12
0.597 0.42399999 0.072999999 12
0.57700002 0.43799999 0.064999998 10
0.55000001 0.44499999 0.055 9
0.523 0.45100001 0.046 11
0.54299998 0.433 0.061999999 10
0.56400001 0.44 0.068999998 12
0.54500002 0.45500001 0.061999999 9
0.51599997 0.45899999 0.052999999 9
0.49200001 0.46599999 0.045000002 10
0.509 0.44499999 0.059 10
0.523 0.447 0.064999998 11
0.50599998 0.46399999 0.059 9
0.495 0.484 0.052999999 10
0.45899999 0.47799999 0.045000002 9
0.5 0.46799999 0.061999999 10
0.47999999 0.48199999 0.057 8
0.44600001 0.479 0.050000001 9
0.421 0.48300001 0.044 7
0.45500001 0.46599999 0.057 10
0.44600001 0.491 0.055 8
0.435 0.51300001 0.050999999 9
0.40599999 0.51200002 0.046 10
0.44800001 0.47999999 0.057 10
0.41299999 0.498 0.052000001 9
0.403 0.523 0.050000001 9
0.37099999 0.51700002 0.045000002 9
0.43399999 0.50999999 0.056000002 10
0.38100001 0.50599998 0.050000001 9
0.368 0.52600002 0.048 9
0.35100001 0.542 0.046 10
0.39700001 0.51099998 0.052000001 10
0.35600001 0.51999998 0.048999999 9
0.347 0.55000001 0.048999999 9
0.32800001 0.56199998 0.046999998 10
0.36399999 0.51599997 0.048 10
0.33500001 0.542 0.048 9
0.32800001 0.57800001 0.048999999 9
0.28600001 0.54799998 0.046 10
0.345 0.54100001 0.046999998 10
0.32800001 0.55900002 0.048999999 9
0.27900001 0.55000001 0.046 9
0.26899999 0.579 0.048 10
0.32800001 0.56999999 0.046 11
0.29499999 0.56099999 0.046 9
0.271 0.60000002 0.048999999 9
0.28799999 0.55800003 0.041999999 10
0.26800001 0.57200003 0.045000002 9
0.266 0.579 0.041000001 9
0.755 -0.103 0.041000001 15
0.76099998 -0.086000003 0.041000001 15
0.76899999 -0.082000002 0.017000001 11
0.773 -0.07 0.041000001 15
0.78100002 -0.066 0.017000001 11
0.78399998 -0.054000001 0.041000001 15
0.79100001 -0.048 0.017000001 11
0.79400003 -0.044 -0.0060000001 13
0.79100001 -0.037 0.039999999 15
0.80599999 -0.030999999 0.017000001 12
0.80400002 -0.025 -0.0070000002 13
0.80699998 -0.02 -0.032000002 14
0.80900002 -0.02 0.041000001 14
0.81400001 -0.013 0.017000001 12
0.81599998 -0.0070000002 -0.0070000002 13
0.81400001 -0.001 -0.032000002 14
0.82300001 -0.0020000001 0.041000001 14
0.82800001 0.0049999999 0.017000001 12
0.829 0.012 -0.0070000002 14
0.83200002 0.015 0.041000001 15
0.838 0.024 0.016000001 14
0.83499998 0.034000002 0.039999999 16
0.847 0.044 0.016000001 0
0.83499998 0.052000001 0.039000001 4
0.57999998 0.37599999 -0.023 12
0.56800002 0.38800001 -0.023 11
0.57800001 0.39500001 -0.0099999998 10
0.574 0.41299999 -0.023 11
0.57499999 0.39300001 0.0020000001 10
0.55599999 0.41999999 -0.023 12
0.58099997 0.39500001 0.013 11
0.56099999 0.42399999 -0.0099999998 10
0.54699999 0.435 -0.022 11
0.56199998 0.42399999 0.001 11
0.52100003 0.43399999 -0.021 11
0.57599998 0.43099999 0.012 12
0.51800001 0.43099999 -0.0099999998 10
0.51499999 0.45100001 -0.021 11
0.52499998 0.435 0 9
0.49399999 0.454 -0.02 11
0.53899997 0.442 0.0089999996 11
0.498 0.45500001 -0.0099999998 10
0.51899999 0.44600001 0.0080000004 12
0.51099998 0.46399999 0 9
0.46200001 0.46700001 -0.018999999 9
0.51499999 0.463 0.0070000002 11
0.45899999 0.461 -0.0099999998 9
0.45300001 0.45199999 -0.001 9
0.42699999 0.47499999 -0.017999999 10
0.47 0.463 0.0049999999 10
0.435 0.47999999 -0.0099999998 9
0.43399999 0.47499999 -0.0020000001 9
0.39500001 0.484 -0.017000001 10
0.45100001 0.486 0.003 11
0.396 0.48100001 -0.0099999998 9
0.398 0.47799999 -0.003 9
0.368 0.49700001 -0.016000001 10
0.412 0.48699999 0.001 10
0.368 0.49200001 -0.0099999998 9
0.37099999 0.49000001 -0.0040000002 9
0.33899999 0.50599998 -0.015 9
0.382 0.495 0 10
0.35100001 0.51800001 -0.0099999998 8
0.34999999 0.509 -0.0049999999 8
0.32600001 0.542 -0.015 10
0.36399999 0.51999998 -0.0020000001 9
0.33000001 0.53899997 -0.0099999998 9
0.33199999 0.53399998 -0.0060000001 9
0.30399999 0.56400001 -0.014 10
0.34400001 0.542 -0.0040000002 10
0.30899999 0.56400001 -0.0099999998 9
0.31099999 0.55699998 -0.0070000002 9
0.271 0.565 -0.013 10
0.31999999 0.55900002 -0.0060000001 9
0.273 0.55699998 -0.0099999998 9
0.27599999 0.55299997 -0.0080000004 9
0.29899999 0.58399999 -0.0080000004 10
0.26899999 0.58999997 -0.0099999998 9
