# .PCD v0.7 - Point Cloud Data file format
VERSION 0.7
FIELDS x y z intensity
SIZE 4 4 4 4
TYPE F F F F
COUNT 1 1 1 1
WIDTH 222
HEIGHT 1
VIEWPOINT 0 0 0 1 0 0 0
POINTS 222
DATA ascii
0.461 0.079999998 0.234 7
0.45699999 0.102 0.234 7
0.46200001 0.094999999 0.249 7
0.45300001 0.123 0.234 7
0.46200001 0.097000003 0.26300001 7
0.456 0.116 0.248 6
0.45300001 0.147 0.237 8
0.46000001 0.118 0.264 7
0.458 0.139 0.252 6
0.463 0.106 0.278 8
0.45500001 0.171 0.242 8
0.45699999 0.14 0.26499999 7
0.458 0.163 0.255 6
0.45899999 0.127 0.27700001 8
0.44800001 0.193 0.243 8
0.45100001 0.16 0.264 7
0.44999999 0.184 0.255 6
0.458 0.149 0.278 8
0.44600001 0.21699999 0.24699999 8
0.449 0.183 0.266 7
0.45500001 0.20999999 0.26199999 6
0.45699999 0.171 0.28 8
0.44 0.241 0.25 8
0.44499999 0.206 0.26800001 7
0.447 0.23199999 0.26300001 7
0.44999999 0.192 0.27900001 8
0.43099999 0.26300001 0.252 8
0.43799999 0.227 0.26899999 7
0.44499999 0.25799999 0.26800001 7
0.44400001 0.213 0.27900001 8
0.43099999 0.29100001 0.259 9
0.43900001 0.25299999 0.27500001 7
0.44100001 0.28299999 0.273 7
0.44 0.236 0.28099999 8
0.43399999 0.27700001 0.278 8
0.44299999 0.31400001 0.28200001 7
0.44 0.26300001 0.28600001 9
0.43399999 0.30599999 0.285 6
0.43900001 0.289 0.29100001 9
0.45199999 0.029999999 0.15000001 7
0.45100001 0.037999999 0.16 6
0.45500001 0.052000001 0.15099999 6
0.45199999 0.045000002 0.171 6
0.461 0.059999999 0.164 6
0.45199999 0.074000001 0.15099999 6
0.456 0.048999999 0.183 7
0.465 0.067000002 0.177 6
0.46000001 0.082000002 0.164 6
0.45199999 0.096000001 0.152 6
0.45500001 0.068999998 0.182 7
0.458 0.088 0.17399999 6
0.458 0.104 0.16500001 6
0.447 0.117 0.152 6
0.44999999 0.089000002 0.18099999 7
0.458 0.109 0.175 6
0.45100001 0.124 0.164 6
0.44400001 0.139 0.153 6
0.44800001 0.109 0.18000001 7
0.45199999 0.12899999 0.17399999 6
0.44800001 0.146 0.164 6
0.43900001 0.161 0.154 7
0.44400001 0.12899999 0.17900001 7
0.449 0.15099999 0.17399999 6
0.44800001 0.17 0.167 6
0.44 0.186 0.15700001 7
0.44100001 0.15000001 0.17900001 7
0.44800001 0.17299999 0.176 6
0.447 0.193 0.169 6
0.43599999 0.20900001 0.15899999 7
0.435 0.169 0.178 7
0.44299999 0.19499999 0.176 6
0.44100001 0.215 0.17 6
0.433 0.233 0.162 7
0.43900001 0.19400001 0.18099999 7
0.44299999 0.219 0.17900001 6
0.435 0.23800001 0.171 6
0.42899999 0.25799999 0.16500001 7
0.435 0.21600001 0.182 7
0.43900001 0.243 0.18000001 6
0.43099999 0.26199999 0.17399999 6
0.42899999 0.237 0.182 7
0.435 0.26699999 0.183 6
0.43200001 0.264 0.186 8
0.43000001 0.090000004 0.104 6
0.44400001 0.107 0.098999999 5
0.42899999 0.126 0.088 5
0.43599999 0.141 0.082000002 6
0.442 0.113 0.106 6
0.44100001 0.127 0.098999999 5
0.42399999 0.146 0.088 5
0.43099999 0.163 0.082000002 6
0.43700001 0.132 0.105 6
0.43799999 0.148 0.098999999 5
0.42199999 0.168 0.089000002 5
0.433 0.18799999 0.083999999 6
0.435 0.153 0.105 6
0.43700001 0.17 0.098999999 6
0.41999999 0.191 0.090000004 6
0.426 0.20999999 0.085000001 6
0.43399999 0.17399999 0.105 6
0.43599999 0.193 0.1 6
0.41600001 0.213 0.090999998 6
0.42199999 0.192 0.103 7
0.43000001 0.214 0.1 6
0.421 0.214 0.103 7
0.426 0.117 0.092 6
0.42699999 0.13699999 0.093999997 6
0.43599999 0.14300001 0.082999997 5
0.42500001 0.15700001 0.094999999 6
0.43200001 0.163 0.083999999 5
0.43099999 0.16599999 0.071000002 5
0.42300001 0.178 0.097000003 6
0.42899999 0.185 0.086000003 5
0.428 0.18799999 0.072999999 5
0.42300001 0.191 0.059 6
0.42399999 0.2 0.1 7
0.428 0.207 0.086999997 6
0.41100001 0.21600001 0.098999999 5
0.447 0.022 0.153 6
0.44299999 0.027000001 0.14 6
0.45100001 0.041999999 0.156 7
0.44100001 0.046 0.141 6
0.45199999 0.043000001 0.133 5
0.449 0.061000001 0.15700001 7
0.44 0.066 0.142 6
0.449 0.063000001 0.133 5
0.442 0.079999998 0.156 6
0.43700001 0.068999998 0.119 6
0.442 0.086999997 0.145 6
0.44800001 0.083999999 0.134 5
0.44100001 0.098999999 0.15800001 7
0.43799999 0.090999998 0.12 6
0.43799999 0.106 0.145 6
0.44400001 0.105 0.13500001 5
0.44400001 0.12 0.161 7
0.42899999 0.111 0.119 6
0.43399999 0.126 0.146 6
0.44100001 0.126 0.13600001 5
0.44 0.14 0.163 7
0.43099999 0.134 0.122 6
0.435 0.148 0.149 6
0.43799999 0.148 0.13699999 6
0.435 0.15899999 0.164 7
0.42899999 0.156 0.123 6
0.43000001 0.168 0.15000001 6
0.442 0.17200001 0.141 6
0.435 0.18000001 0.167 7
0.428 0.17900001 0.126 7
0.42899999 0.19 0.153 6
0.43799999 0.19400001 0.14300001 6
0.43799999 0.204 0.17299999 7
0.42399999 0.20200001 0.127 7
0.43099999 0.214 0.15800001 6
0.43399999 0.21699999 0.145 6
0.433 0.22499999 0.175 7
0.42199999 0.226 0.13 7
0.426 0.236 0.16 6
0.43200001 0.242 0.149 6
0.433 0.248 0.17900001 8
0.45699999 0.075000003 0.244 7
0.463 0.068000004 0.23100001 6
0.46200001 0.059999999 0.215 6
0.45899999 0.052999999 0.199 7
0.45699999 0.094999999 0.24699999 7
0.46200001 0.089000002 0.233 6
0.45899999 0.081 0.215 6
0.458 0.075000003 0.2 7
0.45300001 0.115 0.248 7
0.461 0.11 0.235 6
0.45899999 0.103 0.21799999 6
0.456 0.097000003 0.20100001 7
0.45300001 0.13500001 0.252 8
0.45899999 0.131 0.23800001 6
0.45699999 0.125 0.22 6
0.45199999 0.119 0.20200001 7
0.45199999 0.156 0.25600001 8
0.456 0.152 0.23999999 6
0.45500001 0.147 0.223 6
0.44999999 0.141 0.204 7
0.449 0.177 0.25799999 8
0.454 0.17399999 0.243 6
0.45199999 0.169 0.22499999 6
0.44800001 0.164 0.207 7
0.44600001 0.197 0.26199999 8
0.45100001 0.19599999 0.24699999 7
0.442 0.189 0.22499999 6
0.449 0.19 0.212 7
0.44499999 0.22 0.26699999 8
0.44600001 0.21799999 0.25 7
0.44800001 0.21600001 0.233 6
0.44499999 0.213 0.215 7
0.43900001 0.23999999 0.27000001 8
0.44400001 0.242 0.255 7
0.44600001 0.241 0.23800001 6
0.442 0.23899999 0.22 8
0.43900001 0.26499999 0.27700001 9
0.442 0.26699999 0.26100001 7
0.44299999 0.26699999 0.244 7
0.43399999 0.26199999 0.222 8
0.43799999 0.28999999 0.28400001 9
0.43700001 0.29100001 0.266 7
0.442 0.29499999 0.25099999 7
0.42699999 0.287 0.226 3
0.458 0.098999999 0.287 8
0.47 0.14 0.37 8
0.461 0.127 0.336 7
0.46200001 0.119 0.31299999 7
0.456 0.122 0.289 8
0.45699999 0.148 0.33899999 8
0.46200001 0.142 0.31799999 7
0.45500001 0.145 0.29300001 8
0.45199999 0.169 0.34099999 8
0.46200001 0.16500001 0.32300001 7
0.449 0.167 0.294 8
0.44999999 0.184 0.32100001 8
0.44499999 0.189 0.29800001 8
0.45100001 0.20900001 0.329 7
0.44499999 0.215 0.30500001 9
0.44600001 0.242 0.31400001 7
0.461 0.122 0.36000001 8
0.46000001 0.133 0.361 9
0.45699999 0.093000002 0.266 8
