# .PCD v0.7 - Point Cloud Data file format
VERSION 0.7
FIELDS x y z intensity
SIZE 4 4 4 4
TYPE F F F F
COUNT 1 1 1 1
WIDTH 157
HEIGHT 1
VIEWPOINT 0 0 0 1 0 0 0
POINTS 157
DATA ascii
0.49700001 0.169 0.193 8
0.49599999 0.17399999 0.204 8
0.49000001 0.193 0.19400001 8
0.486 0.19599999 0.20299999 8
0.48100001 0.21600001 0.19400001 8
0.491 0.18799999 0.214 8
0.477 0.21799999 0.20299999 7
0.47099999 0.23899999 0.19400001 8
0.50099999 0.192 0.227 9
0.48699999 0.212 0.215 7
0.46900001 0.241 0.20299999 8
0.461 0.26199999 0.19499999 8
0.486 0.211 0.222 8
0.472 0.23199999 0.212 7
0.45699999 0.26199999 0.20200001 8
0.449 0.28400001 0.19499999 8
0.47600001 0.233 0.221 8
0.46799999 0.257 0.214 7
0.447 0.285 0.20299999 8
0.442 0.30899999 0.199 8
0.47 0.25600001 0.221 8
0.46200001 0.28099999 0.21600001 7
0.44100001 0.31099999 0.207 8
0.43099999 0.333 0.20100001 9
0.45899999 0.278 0.22 8
0.44999999 0.303 0.215 7
0.43000001 0.33399999 0.208 8
0.41800001 0.35499999 0.20200001 9
0.447 0.29899999 0.21799999 8
0.43900001 0.32600001 0.21600001 8
0.417 0.35600001 0.20900001 8
0.41299999 0.38499999 0.20900001 6
0.442 0.32499999 0.221 9
0.43099999 0.35100001 0.21799999 8
0.40799999 0.382 0.212 7
0.428 0.34599999 0.22 9
0.41999999 0.375 0.22 8
0.41499999 0.368 0.219 9
0.45199999 0.23800001 0.116 7
0.45199999 0.259 0.111 8
0.47799999 0.222 0.134 8
0.46599999 0.23800001 0.126 7
0.44499999 0.26199999 0.117 7
0.44299999 0.28200001 0.112 8
0.46900001 0.244 0.133 8
0.45899999 0.26199999 0.126 7
0.435 0.28400001 0.117 7
0.433 0.30599999 0.113 8
0.458 0.26499999 0.131 8
0.44499999 0.28200001 0.125 7
0.428 0.30899999 0.119 7
0.414 0.322 0.112 7
0.449 0.287 0.13 8
0.435 0.30399999 0.125 7
0.41299999 0.32800001 0.118 6
0.43200001 0.30500001 0.12800001 8
0.42500001 0.32699999 0.125 7
0.42199999 0.32600001 0.127 8
0.44299999 0.27500001 0.097000003 8
0.42899999 0.294 0.097000003 8
0.435 0.30899999 0.085000001 7
0.419 0.315 0.097999997 8
0.49900001 0.16599999 0.167 8
0.49000001 0.18700001 0.167 8
0.493 0.189 0.154 7
0.479 0.207 0.167 8
0.484 0.211 0.154 7
0.47 0.219 0.13699999 7
0.47400001 0.229 0.17 8
0.47400001 0.23199999 0.155 7
0.46200001 0.242 0.139 7
0.46200001 0.24600001 0.125 8
0.46700001 0.25099999 0.171 8
0.46399999 0.25400001 0.155 7
0.45300001 0.26499999 0.14 7
0.45100001 0.26899999 0.125 8
0.45899999 0.27200001 0.17299999 8
0.45500001 0.27500001 0.15700001 7
0.442 0.287 0.141 7
0.44299999 0.294 0.12800001 8
0.44800001 0.292 0.17399999 8
0.44299999 0.296 0.15800001 7
0.43000001 0.30899999 0.142 7
0.43000001 0.31600001 0.12899999 8
0.43799999 0.31299999 0.175 8
0.433 0.31900001 0.16 7
0.41800001 0.33000001 0.14399999 7
0.412 0.33500001 0.12800001 5
0.42699999 0.33399999 0.177 8
0.419 0.338 0.16 7
0.41299999 0.35299999 0.178 9
0.491 0.18700001 0.22400001 8
0.49599999 0.186 0.20999999 8
0.49900001 0.20999999 0.26699999 9
0.49700001 0.206 0.24699999 7
0.486 0.211 0.227 8
0.484 0.20900001 0.20900001 8
0.48699999 0.23 0.266 9
0.48800001 0.228 0.248 8
0.47400001 0.233 0.227 8
0.47299999 0.23199999 0.20999999 8
0.477 0.25 0.26699999 9
0.479 0.25 0.25 8
0.46399999 0.255 0.228 8
0.46200001 0.25400001 0.20999999 8
0.46799999 0.271 0.26899999 9
0.46700001 0.271 0.25 8
0.456 0.27900001 0.23100001 8
0.45300001 0.278 0.213 8
0.45899999 0.292 0.271 9
0.458 0.29300001 0.252 8
0.44499999 0.301 0.23199999 8
0.44499999 0.303 0.21600001 9
0.45199999 0.31600001 0.27500001 9
0.44800001 0.31600001 0.255 8
0.43599999 0.32499999 0.236 8
0.43200001 0.32600001 0.21799999 9
0.442 0.33700001 0.27700001 9
0.43599999 0.33700001 0.257 8
0.421 0.345 0.237 8
0.42300001 0.35299999 0.223 9
0.43200001 0.359 0.28099999 9
0.42500001 0.36000001 0.25999999 8
0.41299999 0.37200001 0.242 8
0.40900001 0.375 0.226 9
0.42399999 0.384 0.28600001 9
0.419 0.38800001 0.26699999 8
0.40200001 0.39700001 0.24699999 8
0.40900001 0.403 0.287 10
0.41100001 0.41499999 0.27399999 8
0.40700001 0.43599999 0.29899999 9
0.48199999 0.245 0.31200001 10
0.48199999 0.26699999 0.36399999 9
0.491 0.26699999 0.34599999 8
0.47099999 0.26800001 0.31400001 10
0.47099999 0.28799999 0.366 9
0.48100001 0.29100001 0.34900001 8
0.461 0.292 0.317 10
0.46700001 0.315 0.37400001 8
0.472 0.31600001 0.35299999 9
0.44999999 0.317 0.31999999 10
0.454 0.33500001 0.35100001 9
0.442 0.34299999 0.32699999 10
0.43700001 0.37400001 0.33700001 10
0.49200001 0.23999999 0.33399999 9
0.486 0.25099999 0.33399999 10
0.47499999 0.27399999 0.33500001 10
0.48300001 0.278 0.35699999 9
0.47 0.30000001 0.35699999 9
0.45899999 0.324 0.34299999 10
0.465 0.278 0.36199999 9
0.47299999 0.317 0.36399999 8
0.442 0.34400001 0.34200001 11
0.47 0.31099999 0.375 9
0.46399999 0.34299999 0.368 9
0.48199999 0.296 0.391 10
0.43799999 0.33899999 0.35299999 0
