# .PCD v0.7 - Point Cloud Data file format
VERSION 0.7
FIELDS x y z intensity
SIZE 4 4 4 4
TYPE F F F F
COUNT 1 1 1 1
WIDTH 110
HEIGHT 1
VIEWPOINT 0 0 0 1 0 0 0
POINTS 110
DATA ascii
0.38299999 0.34400001 0.077 6
0.33199999 0.32699999 0.057 4
0.34099999 0.33399999 0.071999997 6
0.47799999 0.36199999 0.115 7
0.47 0.36300001 0.131 7
0.456 0.35800001 0.14399999 7
0.41499999 0.347 0.104 7
0.45300001 0.361 0.16 8
0.40700001 0.345 0.118 6
0.39500001 0.34 0.13 6
0.36899999 0.34 0.097000003 6
0.40099999 0.34799999 0.147 7
0.35100001 0.32699999 0.106 5
0.354 0.33399999 0.121 6
0.35699999 0.338 0.13600001 6
0.30399999 0.315 0.122 3
0.465 0.35499999 0.20299999 8
0.44499999 0.34999999 0.213 7
0.43599999 0.34900001 0.19400001 7
0.435 0.345 0.243 7
0.43099999 0.34799999 0.226 5
0.39199999 0.338 0.19599999 6
0.38499999 0.34 0.17900001 6
0.39399999 0.34 0.228 7
0.38600001 0.34099999 0.20999999 5
0.34200001 0.324 0.17900001 5
0.338 0.32800001 0.16500001 6
0.35299999 0.33199999 0.213 6
0.34099999 0.33000001 0.19400001 5
0.30899999 0.32100001 0.169 5
0.31099999 0.31900001 0.19599999 5
0.30500001 0.322 0.182 5
0.42199999 0.338 0.30199999 6
0.41800001 0.338 0.28099999 6
0.40000001 0.331 0.33000001 5
0.40000001 0.33399999 0.31099999 4
0.391 0.33199999 0.26899999 7
0.375 0.331 0.28 6
0.35699999 0.322 0.30599999 7
0.36000001 0.32800001 0.29100001 5
0.34599999 0.324 0.249 6
0.333 0.322 0.25999999 6
0.32100001 0.31400001 0.285 6
0.324 0.32300001 0.27399999 5
0.30899999 0.31900001 0.234 6
0.29300001 0.31099999 0.23999999 5
0.289 0.308 0.26899999 6
0.28799999 0.31400001 0.255 4
0.303 0.31200001 0.31200001 6
0.26899999 0.30399999 0.292 6
0.41499999 0.32699999 0.35600001 4
0.398 0.32800001 0.34799999 8
0.35600001 0.32300001 0.32499999 7
0.317 0.31400001 0.301 6
0.32499999 0.31900001 0.31900001 6
0.28799999 0.31299999 0.28799999 6
0.287 0.30899999 0.29499999 5
0.25999999 0.30700001 0.28099999 4
0.27399999 0.30399999 0.29499999 5
0.271 0.30899999 0.301 6
0.419 0.34200001 0.26499999 8
0.417 0.34 0.273 7
0.37400001 0.336 0.24699999 7
0.421 0.34099999 0.28299999 6
0.37599999 0.336 0.255 6
0.33199999 0.32699999 0.229 6
0.368 0.32699999 0.25600001 6
0.33500001 0.32800001 0.237 5
0.296 0.31900001 0.214 6
0.40700001 0.33899999 0.28200001 7
0.32499999 0.317 0.235 5
0.29699999 0.31900001 0.22 5
0.35600001 0.32600001 0.255 7
0.29699999 0.317 0.22400001 5
0.32100001 0.322 0.23800001 6
0.289 0.31799999 0.223 6
0.456 0.35299999 0.186 8
0.48100001 0.35800001 0.20100001 8
0.44800001 0.35100001 0.19 7
0.405 0.345 0.17200001 7
0.47600001 0.35699999 0.205 7
0.447 0.35100001 0.19599999 7
0.40200001 0.34599999 0.177 6
0.359 0.336 0.15899999 6
0.45199999 0.354 0.20100001 8
0.40200001 0.347 0.182 6
0.35800001 0.33700001 0.163 5
0.32300001 0.33199999 0.15000001 6
0.39399999 0.338 0.18000001 7
0.35699999 0.338 0.167 5
0.31400001 0.32499999 0.15000001 5
0.35499999 0.33399999 0.167 7
0.31900001 0.331 0.155 5
0.31400001 0.324 0.153 6
0.47999999 0.36500001 0.105 8
0.49399999 0.366 0.114 7
0.449 0.35800001 0.1 7
0.463 0.36000001 0.108 7
0.477 0.361 0.116 7
0.39300001 0.345 0.092 7
0.39899999 0.34099999 0.097000003 6
0.46799999 0.35800001 0.118 8
0.428 0.35499999 0.107 6
0.34799999 0.336 0.085000001 6
0.36300001 0.34099999 0.090999998 6
0.41299999 0.34599999 0.106 7
0.37900001 0.345 0.097999997 5
0.37 0.34 0.097000003 7
0.34099999 0.34 0.090999998 5
0.33199999 0.33399999 0.090000004 6
