# .PCD v0.7 - Point Cloud Data file format
VERSION 0.7
FIELDS x y z intensity
SIZE 4 4 4 4
TYPE F F F F
COUNT 1 1 1 1
WIDTH 474
HEIGHT 1
VIEWPOINT 0 0 0 1 0 0 0
POINTS 474
DATA ascii
0.45100001 0 0.354 8
0.414 0.27000001 0.38800001 10
0.39500001 0.28400001 0.382 10
0.38299999 0.303 0.384 10
0.366 0.31799999 0.382 10
0.34999999 0.333 0.38100001 10
0.33500001 0.34900001 0.382 10
0.31999999 0.36500001 0.384 10
0.30599999 0.38299999 0.389 9
0.40400001 -0.086999997 0.25099999 2
0.43000001 -0.071000002 0.264 7
0.42699999 -0.074000001 0.28099999 5
0.43099999 -0.050999999 0.26300001 7
0.435 -0.055 0.28400001 6
0.435 -0.029999999 0.26300001 7
0.43700001 -0.035 0.28299999 6
0.44299999 -0.041000001 0.30700001 6
0.44299999 -0.0099999998 0.26699999 7
0.43200001 -0.048999999 0.32100001 3
0.44299999 -0.015 0.28600001 6
0.442 -0.039999999 0.32699999 8
0.449 -0.021 0.30899999 6
0.45199999 0.0099999998 0.27200001 7
0.45199999 0.0049999999 0.28999999 7
0.447 -0.021 0.32800001 8
0.45199999 -0.001 0.31 6
0.458 0.032000002 0.27599999 8
0.45300001 0.026000001 0.29100001 7
0.45300001 -0.0020000001 0.33000001 8
0.458 0.017999999 0.31299999 6
0.463 0.055 0.28 8
0.46200001 0.046999998 0.29699999 7
0.456 0.016000001 0.33199999 8
0.46599999 0.039000001 0.31799999 6
0.47099999 0.078000002 0.287 8
0.47099999 0.07 0.30399999 7
0.463 0.037 0.336 8
0.47799999 0.061999999 0.32699999 6
0.479 0.103 0.294 7
0.37 0.375 0.317 10
0.40000001 0.34599999 0.34099999 8
0.38800001 0.37200001 0.33500001 7
0.417 0.33700001 0.35600001 9
0.34900001 0.38699999 0.31400001 9
0.375 0.35600001 0.33199999 8
0.366 0.38499999 0.331 8
0.39199999 0.34799999 0.345 9
0.32699999 0.398 0.31099999 9
0.361 0.37599999 0.333 9
0.347 0.40000001 0.329 8
0.37099999 0.36199999 0.33899999 10
0.30500001 0.40799999 0.308 9
0.336 0.38299999 0.324 8
0.32800001 0.41600001 0.32800001 8
0.35100001 0.375 0.333 9
0.28600001 0.421 0.308 9
0.31999999 0.40099999 0.32499999 8
0.30199999 0.41999999 0.31999999 7
0.329 0.38600001 0.32699999 9
0.25400001 0.412 0.294 8
0.29699999 0.40900001 0.31900001 8
0.278 0.426 0.31400001 7
0.31200001 0.403 0.32600001 9
0.23800001 0.43000001 0.29899999 9
0.27399999 0.41600001 0.31299999 8
0.25600001 0.43399999 0.31099999 6
0.289 0.41100001 0.31900001 9
0.21799999 0.44 0.29899999 8
0.25099999 0.42199999 0.30700001 7
0.235 0.44499999 0.31 7
0.26199999 0.41299999 0.308 7
0.23199999 0.435 0.30700001 7
0.213 0.45100001 0.30700001 7
0.245 0.42899999 0.308 8
0.212 0.44499999 0.30500001 7
0.226 0.44299999 0.308 8
0.20200001 0.447 0.30199999 8
0.398 -0.133 0.18000001 6
0.405 -0.125 0.182 6
0.39899999 -0.112 0.191 5
0.40400001 -0.104 0.178 6
0.40099999 -0.102 0.20299999 5
0.412 -0.094999999 0.19400001 5
0.414 -0.085000001 0.18000001 6
0.403 -0.096000001 0.21699999 6
0.41499999 -0.086999997 0.208 5
0.41999999 -0.077 0.19499999 5
0.419 -0.066 0.18099999 6
0.412 -0.079999998 0.219 6
0.41800001 -0.068000004 0.207 5
0.42500001 -0.057 0.19499999 5
0.428 -0.046 0.183 6
0.417 -0.063000001 0.219 6
0.42699999 -0.050000001 0.20900001 5
0.428 -0.037999999 0.19499999 5
0.43099999 -0.026000001 0.183 6
0.42300001 -0.045000002 0.22 6
0.43399999 -0.030999999 0.211 5
0.43599999 -0.017999999 0.198 5
0.43599999 -0.0049999999 0.184 6
0.42899999 -0.027000001 0.221 6
0.442 -0.012 0.213 5
0.44600001 0.001 0.20100001 5
0.44400001 0.015 0.18799999 6
0.43399999 -0.0089999996 0.222 7
0.44600001 0.0070000002 0.214 5
0.45300001 0.022 0.204 6
0.45199999 0.037 0.191 6
0.44100001 0.0089999996 0.22400001 7
0.45100001 0.027000001 0.21600001 6
0.46200001 0.044 0.208 6
0.461 0.059 0.19599999 7
0.45300001 0.028999999 0.229 7
0.465 0.048999999 0.222 6
0.46700001 0.066 0.211 6
0.472 0.083999999 0.20200001 7
0.45899999 0.050000001 0.23199999 7
0.47 0.071000002 0.22499999 6
0.46900001 0.089000002 0.213 6
0.47600001 0.108 0.205 7
0.47099999 0.071999997 0.23800001 7
0.479 0.093999997 0.23100001 6
0.477 0.113 0.219 6
0.472 0.093000002 0.23899999 7
0.48899999 0.119 0.237 7
0.48100001 0.117 0.243 8
0.49399999 0.14399999 0.241 5
0.48500001 0.141 0.24699999 8
0.245 0.396 0.198 7
0.23100001 0.41499999 0.20200001 7
0.235 0.40000001 0.199 6
0.223 0.447 0.213 8
0.236 0.39899999 0.199 6
0.23100001 0.43799999 0.212 6
0.2 0.45199999 0.211 8
0.243 0.40799999 0.20299999 7
0.233 0.43900001 0.213 5
0.211 0.449 0.212 6
0.23100001 0.43099999 0.207 6
0.21600001 0.45699999 0.215 7
0.21699999 0.45500001 0.212 8
0.38999999 -0.125 0.142 5
0.38800001 -0.115 0.14 5
0.39500001 -0.098999999 0.14 5
0.405 -0.093999997 0.131 5
0.39300001 -0.075000003 0.115 5
0.39899999 -0.082000002 0.139 5
0.40900001 -0.075999998 0.131 5
0.398 -0.059 0.105 5
0.40700001 -0.057999998 0.118 5
0.40400001 -0.064999998 0.139 5
0.41499999 -0.057999998 0.131 5
0.40799999 -0.039999999 0.107 5
0.40700001 -0.039000001 0.117 5
0.41 -0.048 0.139 6
0.417 -0.039000001 0.13 5
0.41299999 -0.021 0.108 5
0.414 -0.02 0.118 5
0.414 -0.030999999 0.139 6
0.42699999 -0.021 0.132 5
0.419 -0.001 0.109 6
0.41999999 -0.001 0.119 5
0.42300001 -0.013 0.141 6
0.43200001 -0.001 0.133 5
0.42300001 0.017999999 0.11 6
0.42500001 0.017999999 0.12 5
0.42399999 0.0040000002 0.14 6
0.43799999 0.017000001 0.134 5
0.43099999 0.039000001 0.112 6
0.433 0.037999999 0.122 5
0.43200001 0.023 0.142 6
0.44499999 0.037999999 0.13600001 5
0.43700001 0.061000001 0.114 6
0.44100001 0.059999999 0.125 5
0.43700001 0.043000001 0.142 6
0.44800001 0.057999998 0.13699999 5
0.44999999 0.064000003 0.146 6
0.454 0.079999998 0.139 5
0.45300001 0.085000001 0.147 6
0.223 0.377 0.116 6
0.223 0.38 0.117 5
0.223 0.41999999 0.126 6
0.222 0.38 0.116 5
0.219 0.417 0.124 5
0.208 0.44100001 0.12899999 7
0.222 0.37900001 0.113 6
0.227 0.433 0.12800001 6
0.20999999 0.44800001 0.13 6
0.219 0.41800001 0.12 6
0.208 0.44600001 0.12800001 6
0.204 0.43599999 0.121 7
0.40700001 -0.018999999 0.078000002 5
0.40599999 -0.003 0.067000002 4
0.40900001 -0.0020000001 0.077 5
0.412 0.012 0.057999998 5
0.414 0.014 0.068000004 5
0.41600001 0.028999999 0.048999999 5
0.43000001 0.016000001 0.079999998 5
0.42399999 0.032000002 0.059999999 5
0.42199999 0.034000002 0.068999998 5
0.421 0.034000002 0.078000002 5
0.226 0.37 0.055 5
0.21799999 0.36500001 0.054000001 5
0.212 0.38699999 0.056000002 5
0.21600001 0.368 0.054000001 5
0.214 0.398 0.057999998 4
0.20900001 0.42899999 0.061000001 6
0.215 0.36899999 0.052000001 5
0.20999999 0.39899999 0.056000002 4
0.211 0.44100001 0.061999999 5
0.211 0.403 0.054000001 5
0.207 0.43900001 0.059999999 5
0.222 0.35800001 0.0070000002 5
0.21600001 0.361 0.0089999996 5
0.205 0.37 0.0070000002 5
0.21799999 0.35600001 0.0099999998 4
0.20200001 0.40799999 0.0080000004 5
0.219 0.36700001 0.0099999998 5
0.205 0.373 0.0099999998 5
0.20200001 0.37599999 0.0080000004 5
0.20200001 0.41 0.0099999998 5
0.207 0.352 -0.024 5
0.213 0.35800001 -0.02 4
0.215 0.35699999 -0.016000001 4
0.22 0.361 -0.013 5
0.205 0.373 -0.015 5
0.20200001 0.338 -0.034000002 5
0.20999999 0.34799999 -0.025 4
0.21600001 0.354 -0.015 4
0.226 0.36500001 -0.0070000002 5
0.206 0.37099999 -0.0070000002 5
0.21699999 0.352 -0.011 5
0.208 0.35100001 0 4
0.20100001 0.36500001 -0.011 5
0.211 0.35100001 0.0099999998 4
0.221 0.36199999 0.021 5
0.204 0.37099999 0.021 5
0.2 0.40599999 0.022 6
0.41100001 0.0070000002 0.056000002 5
0.42399999 0.025 0.057999998 6
0.22 0.36199999 0.029999999 5
0.222 0.36000001 0.041999999 5
0.204 0.375 0.030999999 5
0.21600001 0.36500001 0.052999999 5
0.212 0.382 0.043000001 4
0.221 0.36500001 0.064000003 5
0.20200001 0.417 0.034000002 6
0.212 0.39700001 0.056000002 5
0.211 0.426 0.048 5
0.21600001 0.396 0.067000002 5
0.2 0.41999999 0.057999998 5
0.206 0.42199999 0.07 6
0.39199999 -0.055 0.098999999 6
0.40099999 -0.037999999 0.101 5
0.412 -0.045000002 0.094999999 5
0.40400001 -0.021 0.103 5
0.419 -0.026000001 0.097000003 5
0.41499999 -0.030999999 0.086999997 5
0.41999999 -0.0040000002 0.108 6
0.42199999 -0.0080000004 0.097999997 5
0.42199999 -0.012 0.089000002 5
0.417 -0.016000001 0.078000002 5
0.419 0.014 0.108 6
0.42399999 0.0099999998 0.098999999 5
0.42399999 0.0070000002 0.089000002 5
0.419 0.003 0.078000002 5
0.42399999 0.032000002 0.111 6
0.43399999 0.029999999 0.102 5
0.43399999 0.027000001 0.092 5
0.42699999 0.024 0.079999998 5
0.43900001 0.052000001 0.116 6
0.43900001 0.050000001 0.105 5
0.44400001 0.048 0.094999999 5
0.227 0.36700001 0.088 5
0.23100001 0.37200001 0.1 5
0.23100001 0.36899999 0.111 5
0.22 0.39899999 0.093000002 5
0.241 0.38100001 0.126 6
0.222 0.39700001 0.105 5
0.222 0.39199999 0.115 5
0.211 0.42899999 0.098999999 7
0.227 0.396 0.12800001 5
0.214 0.428 0.111 6
0.21600001 0.426 0.122 6
0.22499999 0.435 0.13699999 7
0.20299999 0.43900001 0.13500001 7
0.38600001 -0.14 0.161 5
0.38800001 -0.154 0.156 5
0.37799999 -0.14 0.15099999 5
0.39399999 -0.123 0.164 5
0.38600001 -0.124 0.153 5
0.39899999 -0.106 0.16500001 5
0.384 -0.125 0.145 5
0.391 -0.106 0.153 5
0.384 -0.125 0.13699999 5
0.41100001 -0.090000004 0.169 6
0.391 -0.108 0.146 5
0.39700001 -0.119 0.14 5
0.39500001 -0.089000002 0.154 5
0.405 -0.071000002 0.16599999 6
0.398 -0.090000004 0.147 5
0.39500001 -0.098999999 0.13699999 5
0.403 -0.071999997 0.15700001 5
0.41299999 -0.054000001 0.17 6
0.40099999 -0.071999997 0.147 5
0.40400001 -0.081 0.139 5
0.41 -0.054000001 0.15899999 5
0.421 -0.037 0.17399999 6
0.41 -0.054000001 0.15000001 5
0.41100001 -0.061999999 0.141 5
0.412 -0.035999998 0.16 5
0.42199999 -0.018999999 0.175 6
0.41299999 -0.035 0.15000001 5
0.41499999 -0.043000001 0.141 5
0.42199999 -0.017999999 0.164 5
0.433 -0.001 0.18000001 6
0.417 -0.016000001 0.152 5
0.42300001 -0.024 0.14300001 5
0.42199999 0 0.164 5
0.43599999 0.017000001 0.182 6
0.426 0.0020000001 0.155 5
0.433 -0.0040000002 0.147 6
0.435 0.018999999 0.17 5
0.442 0.035999998 0.186 6
0.43200001 0.022 0.15800001 5
0.44 0.016000001 0.149 6
0.44299999 0.039000001 0.17399999 6
0.45500001 0.057 0.193 7
0.44100001 0.043000001 0.162 6
0.44600001 0.037999999 0.152 6
0.45100001 0.059999999 0.17900001 6
0.463 0.078000002 0.199 7
0.449 0.064000003 0.167 6
0.45199999 0.059999999 0.155 6
0.46200001 0.082999997 0.186 6
0.46700001 0.1 0.204 7
0.45899999 0.088 0.17200001 6
0.46000001 0.083999999 0.15899999 6
0.46900001 0.106 0.191 6
0.236 0.38299999 0.163 6
0.23899999 0.389 0.177 6
0.243 0.396 0.193 6
0.23 0.41800001 0.17299999 7
0.248 0.403 0.20900001 7
0.23199999 0.421 0.18700001 6
0.23 0.41600001 0.198 6
0.214 0.43799999 0.178 7
0.233 0.419 0.212 6
0.21600001 0.43799999 0.191 6
0.22 0.44499999 0.207 7
0.227 0.45100001 0.223 8
0.204 0.45300001 0.219 7
0.426 -0.089000002 0.25999999 7
0.39700001 -0.124 0.211 6
0.412 -0.092 0.23899999 6
0.41499999 -0.106 0.23 5
0.40700001 -0.117 0.215 6
0.43200001 -0.071000002 0.264 7
0.419 -0.074000001 0.242 6
0.42399999 -0.088 0.233 6
0.41 -0.097000003 0.214 6
0.44 -0.052999999 0.26800001 7
0.42300001 -0.055 0.244 6
0.43000001 -0.068999998 0.235 6
0.41600001 -0.078000002 0.215 6
0.44800001 -0.035 0.273 7
0.43599999 -0.037999999 0.25099999 6
0.435 -0.050000001 0.236 6
0.426 -0.059999999 0.219 6
0.45300001 -0.016000001 0.27700001 7
0.43900001 -0.017999999 0.252 6
0.44400001 -0.030999999 0.241 6
0.43099999 -0.039999999 0.22 6
0.45899999 0.003 0.28099999 7
0.44299999 0 0.255 6
0.44800001 -0.0099999998 0.243 6
0.43799999 -0.02 0.223 6
0.46200001 0.022 0.285 7
0.449 0.02 0.25999999 6
0.45500001 0.0089999996 0.248 6
0.449 0 0.229 7
0.46399999 0.041999999 0.28799999 7
0.461 0.041000001 0.26899999 6
0.458 0.029999999 0.25 6
0.45199999 0.021 0.23 7
0.47400001 0.063000001 0.29699999 7
0.465 0.061999999 0.273 7
0.46900001 0.052000001 0.257 6
0.46599999 0.044 0.23899999 7
0.48100001 0.085000001 0.30399999 7
0.47299999 0.083999999 0.28 7
0.47499999 0.075000003 0.26300001 6
0.46700001 0.066 0.241 7
0.47999999 0.098999999 0.26899999 7
0.47799999 0.090999998 0.249 7
0.484 0.123 0.27399999 6
0.48100001 0.116 0.25400001 8
0.41100001 0.345 0.34299999 9
0.38699999 0.354 0.33500001 9
0.39399999 0.36500001 0.322 3
0.38299999 0.37099999 0.31999999 7
0.36899999 0.36700001 0.33199999 10
0.36000001 0.38100001 0.315 8
0.347 0.37400001 0.32499999 9
0.361 0.40599999 0.30700001 8
0.336 0.38699999 0.308 8
0.32600001 0.384 0.32100001 9
0.32800001 0.405 0.29499999 8
0.33899999 0.43000001 0.292 8
0.322 0.40599999 0.31200001 8
0.30899999 0.396 0.31999999 9
0.30599999 0.41600001 0.294 8
0.30199999 0.42300001 0.278 8
0.292 0.40400001 0.30000001 8
0.28999999 0.40599999 0.31799999 9
0.27399999 0.41100001 0.28200001 7
0.255 0.396 0.25400001 7
0.26800001 0.40799999 0.294 6
0.26699999 0.40900001 0.31099999 7
0.25099999 0.41600001 0.27700001 6
0.241 0.417 0.26100001 6
0.24699999 0.41499999 0.29100001 7
0.249 0.419 0.30899999 8
0.23199999 0.428 0.27900001 7
0.22400001 0.43399999 0.266 8
0.233 0.433 0.29699999 7
0.235 0.43599999 0.31400001 8
0.211 0.43599999 0.278 7
0.2 0.43799999 0.26300001 7
0.211 0.43599999 0.29300001 7
0.212 0.43599999 0.30700001 8
0.42399999 -0.054000001 0.317 4
0.433 -0.068000004 0.30399999 7
0.43700001 -0.046 0.32499999 7
0.44 -0.057999998 0.308 7
0.44999999 -0.013 0.35800001 7
0.454 -0.027000001 0.33700001 6
0.44100001 -0.037999999 0.30700001 7
0.44999999 -0.0060000001 0.33399999 7
0.44600001 -0.017000001 0.30899999 7
0.458 0.013 0.34099999 7
0.454 0.003 0.315 8
0.46000001 0.024 0.31900001 8
0.465 0.046 0.32499999 7
0.44 0.211 0.396 4
0.44 0.26899999 0.391 8
0.44800001 0.287 0.37599999 9
0.42300001 0.28600001 0.38800001 8
0.44299999 0.29899999 0.37900001 9
0.40000001 0.29800001 0.37900001 8
0.40900001 0.30500001 0.36300001 9
0.38699999 0.317 0.38100001 7
0.38600001 0.317 0.35600001 9
0.36500001 0.32600001 0.39899999 7
0.36899999 0.331 0.37900001 8
0.36700001 0.33199999 0.354 9
0.35499999 0.34900001 0.38 8
0.35600001 0.354 0.36000001 9
0.338 0.36399999 0.38 8
0.333 0.36500001 0.35600001 8
0.315 0.36500001 0.39300001 8
0.32600001 0.384 0.38699999 8
0.31999999 0.38600001 0.36300001 8
0.31 0.40099999 0.38999999 8
0.30000001 0.39899999 0.36300001 8
0.292 0.41600001 0.39199999 8
0.285 0.419 0.36899999 9
0.27500001 0.433 0.396 5
0.26800001 0.43599999 0.375 8
0.255 0.44499999 0.39700001 6
0.248 0.45199999 0.37900001 8
0.236 0.458 0.40000001 4
0.22400001 0.45699999 0.37599999 6
0.223 0.46000001 0.39700001 3
