# .PCD v0.7 - Point Cloud Data file format
VERSION 0.7
FIELDS x y z intensity
SIZE 4 4 4 4
TYPE F F F F
COUNT 1 1 1 1
WIDTH 707
HEIGHT 1
VIEWPOINT 0 0 0 1 0 0 0
POINTS 707
DATA ascii
0.43399999 -0.071000002 0.32300001 7
0.435 -0.061000001 0.32300001 7
0.405 -0.098999999 0.25600001 6
0.42699999 -0.067000002 0.30000001 6
0.421 -0.079999998 0.28 5
0.41600001 -0.092 0.26199999 6
0.43900001 -0.043000001 0.32699999 7
0.43900001 -0.048999999 0.30700001 6
0.43099999 -0.061999999 0.285 5
0.428 -0.074000001 0.26699999 7
0.45500001 -0.025 0.33899999 7
0.44600001 -0.029999999 0.31200001 7
0.44400001 -0.044 0.292 6
0.433 -0.054000001 0.26800001 7
0.46700001 -0.0060000001 0.34799999 7
0.449 -0.011 0.31400001 6
0.454 -0.024 0.29800001 6
0.44400001 -0.035 0.27399999 7
0.47600001 0.013 0.35699999 8
0.46200001 0.0080000004 0.324 7
0.46700001 -0.003 0.30700001 6
0.45300001 -0.014 0.27900001 7
0.47299999 0.028999999 0.333 7
0.47600001 0.017000001 0.31299999 6
0.461 0.0060000001 0.28400001 7
0.477 0.039000001 0.31600001 7
0.46700001 0.028000001 0.28799999 7
0.493 0.063000001 0.32800001 7
0.484 0.052000001 0.30000001 8
0.49000001 0.075999998 0.30599999 8
0.43700001 0.25400001 0.389 10
0.42300001 0.27000001 0.38600001 10
0.435 0.28799999 0.37599999 8
0.405 0.28299999 0.38 10
0.412 0.30000001 0.36700001 8
0.38999999 0.29699999 0.37799999 9
0.42399999 0.322 0.359 8
0.38999999 0.31099999 0.36000001 9
0.41499999 0.33199999 0.336 3
0.37599999 0.31200001 0.37599999 9
0.39300001 0.32699999 0.34599999 8
0.421 0.354 0.34900001 9
0.377 0.32800001 0.361 7
0.36199999 0.32699999 0.37599999 10
0.37799999 0.34599999 0.347 8
0.38600001 0.35699999 0.33399999 10
0.354 0.33700001 0.35299999 8
0.345 0.338 0.37200001 9
0.35600001 0.35699999 0.34200001 8
0.35600001 0.36199999 0.324 9
0.34 0.352 0.354 8
0.331 0.352 0.37099999 9
0.336 0.36899999 0.34 7
0.34400001 0.38499999 0.331 9
0.32600001 0.36899999 0.35600001 8
0.315 0.36399999 0.37 9
0.317 0.382 0.33899999 7
0.317 0.38999999 0.32300001 8
0.30399999 0.37599999 0.34999999 8
0.303 0.38100001 0.373 9
0.29800001 0.39500001 0.338 7
0.294 0.39899999 0.31999999 8
0.29100001 0.39399999 0.35499999 8
0.28600001 0.39199999 0.37200001 9
0.273 0.39700001 0.33000001 7
0.26800001 0.403 0.31400001 7
0.26800001 0.398 0.34799999 7
0.27500001 0.412 0.37900001 8
0.257 0.41299999 0.33399999 7
0.25 0.419 0.31799999 8
0.25400001 0.41499999 0.35299999 7
0.25600001 0.42199999 0.377 8
0.236 0.421 0.33199999 7
0.22499999 0.421 0.31200001 7
0.234 0.42300001 0.35100001 6
0.23800001 0.43200001 0.37599999 8
0.213 0.42500001 0.32800001 7
0.20200001 0.42399999 0.30899999 7
0.212 0.426 0.345 6
0.22 0.44100001 0.375 8
0.20200001 0.45500001 0.361 5
0.21699999 0.484 0.403 7
0.86299998 -0.2 0.87300003 10
0.79900002 -0.168 0.80699998 8
0.82300001 -0.154 0.829 3
0.92500001 -0.154 0.93099999 8
0.89700001 -0.185 0.84100002 9
0.93199998 -0.13500001 0.93599999 4
0.852 -0.15700001 0.79699999 6
0.95899999 -0.155 0.89399999 2
0.95899999 -0.18700001 0.83700001 10
0.90200001 -0.155 0.78399998 7
0.91399997 -0.107 0.84899998 1
0.93199998 -0.118 0.80500001 8
0.97600001 -0.15000001 0.787 5
0.926 -0.096000001 0.79799998 4
0.447 -0.046999998 0.359 8
0.449 -0.037 0.359 8
0.45899999 -0.017000001 0.366 9
0.498 0.083999999 0.51300001 3
0.493 0.093999997 0.50999999 4
0.486 0.103 0.50599998 9
0.48699999 0.114 0.50999999 11
0.46700001 0.12899999 0.49399999 11
0.45300001 0.146 0.486 11
0.449 0.16500001 0.48899999 10
0.458 0.171 0.45899999 9
0.44299999 0.183 0.49000001 10
0.43799999 0.192 0.48800001 10
0.454 0.192 0.463 8
0.43099999 0.2 0.48500001 10
0.45699999 0.2 0.43399999 9
0.43599999 0.207 0.454 9
0.46599999 0.213 0.412 9
0.428 0.22 0.491 10
0.43900001 0.21600001 0.42500001 9
0.46700001 0.226 0.41800001 10
0.41999999 0.222 0.447 9
0.41100001 0.23199999 0.48199999 10
0.428 0.235 0.42500001 9
0.44 0.23999999 0.405 9
0.40200001 0.235 0.43799999 9
0.40599999 0.252 0.48800001 10
0.41499999 0.25299999 0.42399999 8
0.421 0.25600001 0.39899999 10
0.40400001 0.26100001 0.45300001 9
0.384 0.26100001 0.47299999 3
0.40400001 0.27200001 0.42500001 8
0.40400001 0.27200001 0.396 9
0.38999999 0.27700001 0.48699999 0
0.39700001 0.28099999 0.458 8
0.38499999 0.285 0.419 8
0.396 0.29499999 0.40200001 9
0.38299999 0.296 0.456 7
0.37400001 0.30399999 0.42199999 8
0.37200001 0.30500001 0.39300001 9
0.35699999 0.31799999 0.41999999 8
0.354 0.31900001 0.391 9
0.34799999 0.34 0.428 8
0.34200001 0.33899999 0.39700001 9
0.32100001 0.34999999 0.39199999 9
0.315 0.377 0.40700001 9
0.296 0.39199999 0.40900001 3
0.28999999 0.403 0.414 2
0.75800002 -0.16599999 0.79699999 11
0.80400002 -0.15800001 0.84100002 2
0.866 -0.186 0.83600003 13
0.90200001 -0.15700001 0.93900001 7
0.829 -0.15800001 0.79500002 7
0.91500002 -0.138 0.94999999 8
0.91900003 -0.154 0.87800002 1
0.995 -0.14399999 0.94700003 12
0.54400003 0.063000001 0.56300002 0
0.53200001 0.074000001 0.551 0
0.50300002 0.081 0.523 2
0.495 0.090999998 0.51800001 5
0.49000001 0.102 0.514 9
0.479 0.122 0.50800002 10
0.46599999 0.141 0.50099999 9
0.45899999 0.162 0.50099999 9
0.465 0.16500001 0.46599999 10
0.44100001 0.178 0.48899999 9
0.447 0.182 0.456 10
0.43399999 0.198 0.49200001 7
0.44299999 0.205 0.463 10
0.42699999 0.21799999 0.49399999 8
0.43099999 0.22400001 0.461 10
0.40700001 0.23199999 0.48300001 6
0.417 0.242 0.45899999 10
0.403 0.25400001 0.49200001 6
0.40900001 0.264 0.465 10
0.38600001 0.27500001 0.45300001 10
0.37200001 0.29300001 0.454 6
0.79799998 -0.17900001 0.81199998 13
0.79799998 -0.16 0.80699998 6
0.89600003 -0.15800001 0.90100002 2
0.93400002 -0.14300001 0.935 10
0.49700001 0.121 0.505 4
0.48100001 0.12899999 0.491 10
0.46599999 0.13699999 0.47999999 10
0.463 0.148 0.47999999 10
0.458 0.15800001 0.479 10
0.447 0.177 0.47600001 10
0.433 0.19599999 0.47099999 10
0.435 0.20900001 0.47799999 10
0.42199999 0.215 0.47 10
0.41 0.233 0.46900001 10
0.405 0.255 0.477 10
0.37599999 0.26199999 0.458 5
0.78399998 -0.175 0.80299997 12
0.84200001 -0.17 0.787 13
0.79100001 -0.15800001 0.80500001 3
0.86900002 -0.155 0.80800003 1
0.89200002 -0.15700001 0.90399998 2
0.98199999 -0.15099999 0.90899998 1
0.926 -0.142 0.93400002 9
0.91900003 -0.12 0.847 2
0.505 0.117 0.50999999 2
0.47799999 0.122 0.486 6
0.47600001 0.114 0.52399999 10
0.48199999 0.13500001 0.493 8
0.47999999 0.16599999 0.46200001 10
0.46399999 0.132 0.51499999 9
0.46799999 0.154 0.48500001 8
0.46900001 0.17399999 0.456 10
0.45899999 0.163 0.479 10
0.458 0.153 0.514 9
0.44600001 0.19 0.442 11
0.442 0.18000001 0.46900001 9
0.44400001 0.17 0.50400001 8
0.43000001 0.206 0.435 10
0.435 0.2 0.47 9
0.44400001 0.193 0.51200002 9
0.42399999 0.228 0.44 10
0.42300001 0.21799999 0.46599999 9
0.428 0.243 0.44999999 10
0.43099999 0.20999999 0.50599998 8
0.40900001 0.244 0.435 10
0.41 0.235 0.463 9
0.42199999 0.229 0.505 8
0.39899999 0.264 0.43799999 10
0.403 0.25600001 0.46700001 9
0.39500001 0.237 0.48300001 5
0.38299999 0.27900001 0.435 9
0.38800001 0.271 0.463 9
0.377 0.303 0.44499999 9
0.921 -0.182 0.829 10
0.93000001 -0.153 0.76999998 8
0.433 -0.057 0.331 7
0.829 -0.18000001 0.81300002 11
0.87800002 -0.154 0.78600001 6
0.43799999 -0.048 0.33399999 7
0.81300002 -0.15899999 0.792 8
0.995 -0.152 0.88700002 1
0.94099998 -0.111 0.773 9
0.89200002 -0.155 0.86500001 1
0.972 -0.127 0.86299998 5
0.454 -0.043000001 0.37200001 6
0.45199999 -0.028000001 0.34299999 8
0.98199999 -0.15000001 0.94700003 12
0.93300003 -0.101 0.82499999 2
0.458 -0.033 0.37400001 7
0.92299998 -0.121 0.88499999 0
0.458 -0.0070000002 0.345 8
0.46000001 -0.012 0.37400001 7
0.46900001 0.014 0.354 9
0.46799999 0.17900001 0.45100001 10
0.458 0.233 0.41 9
0.456 0.21699999 0.42699999 9
0.44 0.26499999 0.38699999 10
0.458 0.198 0.44600001 10
0.435 0.24699999 0.39899999 9
0.43799999 0.233 0.417 8
0.419 0.27900001 0.38 10
0.44400001 0.21600001 0.43799999 10
0.42199999 0.266 0.39700001 9
0.42199999 0.249 0.41100001 9
0.40099999 0.294 0.37599999 10
0.43399999 0.236 0.435 9
0.403 0.28 0.389 8
0.40000001 0.26100001 0.39899999 8
0.38499999 0.31099999 0.37400001 10
0.42300001 0.255 0.433 9
0.389 0.29699999 0.38800001 8
0.39700001 0.285 0.40700001 9
0.366 0.324 0.37 10
0.40799999 0.27200001 0.42699999 9
0.37099999 0.31099999 0.38299999 8
0.373 0.29499999 0.39399999 8
0.347 0.336 0.366 9
0.396 0.29100001 0.42399999 9
0.35600001 0.32800001 0.38299999 8
0.36199999 0.31299999 0.39500001 8
0.331 0.35100001 0.36700001 9
0.377 0.30399999 0.41499999 9
0.34099999 0.34400001 0.38299999 8
0.34599999 0.32800001 0.39199999 8
0.31600001 0.368 0.36899999 9
0.36300001 0.32100001 0.41299999 9
0.32499999 0.35800001 0.382 9
0.331 0.34400001 0.391 8
0.30000001 0.38299999 0.37 9
0.35100001 0.34 0.41299999 9
0.30899999 0.373 0.382 8
0.31999999 0.36300001 0.39399999 8
0.28400001 0.398 0.373 9
0.33399999 0.35600001 0.40900001 9
0.29699999 0.39300001 0.38800001 8
0.31 0.38600001 0.40099999 8
0.26899999 0.41600001 0.37900001 9
0.322 0.375 0.41100001 9
0.28299999 0.412 0.39300001 8
0.292 0.40000001 0.40000001 8
0.252 0.43099999 0.38299999 8
0.30399999 0.38999999 0.40799999 6
0.266 0.42699999 0.396 8
0.28099999 0.42399999 0.40900001 7
0.23 0.43599999 0.37900001 8
0.287 0.405 0.40700001 4
0.243 0.43399999 0.38999999 7
0.25999999 0.43399999 0.405 7
0.21799999 0.46399999 0.39500001 6
0.26899999 0.41999999 0.40599999 4
0.222 0.442 0.38800001 6
0.25799999 0.42399999 0.40200001 5
0.236 0.43900001 0.39700001 4
0.204 0.49000001 0.41 2
0.252 0.43799999 0.40799999 7
0.23999999 0.43900001 0.40200001 5
0.21799999 0.45300001 0.39899999 1
0.40900001 -0.101 0.243 6
0.40900001 -0.079999998 0.23999999 6
0.42500001 -0.086000003 0.26699999 6
0.42300001 -0.063000001 0.24600001 7
0.43099999 -0.081 0.289 6
0.43099999 -0.067000002 0.26800001 6
0.43399999 -0.043000001 0.25 7
0.42300001 -0.077 0.30199999 6
0.43900001 -0.061999999 0.29100001 6
0.43799999 -0.046999998 0.27000001 6
0.435 -0.068999998 0.308 7
0.442 -0.023 0.25299999 7
0.43900001 -0.041999999 0.289 6
0.44600001 -0.027000001 0.273 6
0.43799999 -0.050999999 0.308 7
0.449 -0.0020000001 0.257 7
0.44800001 -0.023 0.292 6
0.456 -0.0070000002 0.278 6
0.44600001 -0.032000002 0.31099999 7
0.46200001 0.018999999 0.264 7
0.454 -0.003 0.29499999 7
0.46799999 0.013 0.285 6
0.45699999 -0.014 0.31600001 8
0.47099999 0.041000001 0.26899999 8
0.463 0.016000001 0.30000001 7
0.48100001 0.035999998 0.29300001 6
0.46200001 0.0049999999 0.31799999 8
0.47999999 0.064999998 0.27599999 8
0.46700001 0.037 0.30199999 7
0.491 0.059 0.30000001 7
0.472 0.026000001 0.324 8
0.49000001 0.090000004 0.28299999 8
0.48100001 0.059999999 0.31200001 7
0.50300002 0.083999999 0.308 7
0.48500001 0.048 0.33199999 8
0.35499999 0.38999999 0.301 9
0.37099999 0.38699999 0.31600001 8
0.37599999 0.37 0.31999999 8
0.33399999 0.403 0.30000001 10
0.398 0.36700001 0.336 9
0.34099999 0.389 0.30399999 8
0.35299999 0.38100001 0.31299999 8
0.30399999 0.403 0.28999999 9
0.37900001 0.384 0.33199999 9
0.31900001 0.40099999 0.301 8
0.33399999 0.39500001 0.31 8
0.266 0.38800001 0.27000001 7
0.34999999 0.389 0.31999999 9
0.278 0.38299999 0.27700001 6
0.30700001 0.39899999 0.301 8
0.25600001 0.412 0.27900001 8
0.32499999 0.39700001 0.31099999 9
0.26100001 0.39700001 0.278 6
0.26899999 0.38499999 0.27900001 6
0.235 0.419 0.27700001 8
0.303 0.40700001 0.30500001 8
0.24600001 0.414 0.28200001 7
0.252 0.39899999 0.28 7
0.212 0.421 0.27200001 8
0.26899999 0.39899999 0.287 7
0.226 0.42300001 0.28 7
0.237 0.41600001 0.28200001 7
0.25 0.412 0.28600001 8
0.2 0.41800001 0.27000001 6
0.21600001 0.42300001 0.278 7
0.233 0.426 0.285 8
0.208 0.428 0.278 7
0.37799999 -0.14399999 0.175 5
0.382 -0.13600001 0.176 5
0.384 -0.12899999 0.162 5
0.38699999 -0.13600001 0.19 5
0.38 -0.117 0.15899999 5
0.391 -0.127 0.191 5
0.389 -0.118 0.176 5
0.38499999 -0.098999999 0.15899999 5
0.39500001 -0.12 0.205 6
0.398 -0.11 0.191 5
0.40000001 -0.102 0.177 5
0.39399999 -0.081 0.16 5
0.40099999 -0.103 0.204 6
0.40599999 -0.093000002 0.192 5
0.40599999 -0.083999999 0.178 5
0.40599999 -0.064000003 0.163 6
0.41299999 -0.088 0.207 6
0.412 -0.075999998 0.192 5
0.41499999 -0.066 0.18000001 5
0.41100001 -0.044 0.164 6
0.41800001 -0.07 0.207 6
0.42300001 -0.057999998 0.19499999 5
0.42500001 -0.046999998 0.182 5
0.426 -0.026000001 0.169 6
0.428 -0.052999999 0.20900001 6
0.43099999 -0.039999999 0.197 5
0.433 -0.028000001 0.184 5
0.43200001 -0.0049999999 0.171 6
0.43099999 -0.035 0.20900001 6
0.43700001 -0.021 0.198 5
0.442 -0.0080000004 0.18700001 5
0.442 0.015 0.17399999 6
0.43799999 -0.017000001 0.211 6
0.45199999 -0.001 0.204 6
0.454 0.012 0.192 5
0.456 0.037 0.18000001 6
0.45300001 0.001 0.21600001 6
0.45500001 0.017999999 0.204 6
0.46799999 0.034000002 0.198 6
0.46900001 0.061000001 0.186 7
0.465 0.021 0.221 7
0.472 0.039999999 0.212 6
0.46700001 0.056000002 0.197 6
0.48300001 0.086000003 0.193 7
0.477 0.043000001 0.226 7
0.47999999 0.063000001 0.21600001 6
0.479 0.079999998 0.20299999 6
0.47799999 0.064000003 0.226 7
0.48800001 0.086000003 0.22 6
0.48699999 0.086999997 0.23 7
0.484 0.108 0.219 3
0.49399999 0.111 0.234 7
0.26100001 0.36399999 0.178 6
0.26499999 0.37 0.183 6
0.25299999 0.38999999 0.185 6
0.252 0.38800001 0.186 6
0.245 0.419 0.193 7
0.25400001 0.37099999 0.182 5
0.245 0.41800001 0.19400001 6
0.23 0.43799999 0.197 7
0.264 0.382 0.18700001 6
0.252 0.40700001 0.193 6
0.226 0.43099999 0.19499999 7
0.206 0.43900001 0.193 7
0.25400001 0.40700001 0.192 6
0.241 0.43200001 0.198 6
0.23999999 0.428 0.19499999 7
0.21600001 0.43399999 0.193 6
0.22 0.43900001 0.193 7
0.39300001 -0.068999998 0.126 5
0.403 -0.052999999 0.127 5
0.41499999 -0.045000002 0.12 5
0.419 -0.037 0.11 5
0.417 -0.018999999 0.097999997 5
0.419 -0.035999998 0.13 5
0.419 -0.026000001 0.12 5
0.42399999 -0.017999999 0.11 5
0.42300001 0 0.098999999 6
0.426 -0.017999999 0.131 5
0.43099999 -0.0080000004 0.122 5
0.43099999 0.001 0.112 5
0.43200001 0.021 0.102 6
0.435 0 0.133 6
0.43799999 0.011 0.123 5
0.44400001 0.022 0.115 5
0.43900001 0.043000001 0.104 6
0.44299999 0.017999999 0.134 6
0.44800001 0.030999999 0.126 5
0.45300001 0.043000001 0.117 5
0.44499999 0.037999999 0.134 6
0.458 0.052999999 0.12800001 5
0.45300001 0.059 0.13600001 6
0.25 0.34999999 0.103 6
0.244 0.34400001 0.102 5
0.25400001 0.39199999 0.112 6
0.24699999 0.35100001 0.104 5
0.248 0.38699999 0.111 5
0.23999999 0.412 0.115 6
0.245 0.34799999 0.102 5
0.25400001 0.39899999 0.114 5
0.242 0.419 0.117 6
0.21799999 0.41800001 0.114 6
0.24699999 0.38800001 0.109 6
0.23999999 0.419 0.116 6
0.21799999 0.42300001 0.114 6
0.20100001 0.433 0.116 7
0.233 0.40599999 0.109 6
0.219 0.42699999 0.114 6
0.2 0.435 0.115 6
0.212 0.41299999 0.107 6
0.20100001 0.44 0.114 6
0.42399999 0.022 0.071000002 5
0.248 0.34099999 0.045000002 5
0.245 0.34400001 0.046 5
0.236 0.35800001 0.046 5
0.249 0.33899999 0.046999998 4
0.235 0.366 0.046999998 4
0.235 0.396 0.048999999 6
0.25099999 0.347 0.046999998 5
0.241 0.36300001 0.048 4
0.23199999 0.40000001 0.050000001 5
0.221 0.417 0.050999999 6
0.23899999 0.36399999 0.046 5
0.23999999 0.40099999 0.050999999 5
0.214 0.412 0.050000001 5
0.20200001 0.42899999 0.052000001 6
0.23800001 0.40200001 0.048 6
0.223 0.41299999 0.050000001 5
0.20100001 0.43599999 0.052000001 6
0.222 0.41800001 0.048 6
0.205 0.42699999 0.050000001 5
0.204 0.43099999 0.046 6
0.257 0.33500001 0 5
0.245 0.33000001 0.003 4
0.241 0.347 0 5
0.23899999 0.333 0.0060000001 4
0.236 0.352 0.003 4
0.23100001 0.36899999 0 5
0.25299999 0.345 0.0070000002 5
0.222 0.34200001 0.0049999999 4
0.237 0.391 0.003 5
0.226 0.40099999 0.001 6
0.234 0.352 0.0060000001 5
0.226 0.38499999 0.0049999999 5
0.221 0.40700001 0.003 5
0.223 0.44499999 0.0020000001 7
0.23100001 0.384 0.0049999999 5
0.213 0.40599999 0.0040000002 5
0.21799999 0.44999999 0.003 6
0.221 0.40900001 0.0040000002 6
0.205 0.43799999 0.0040000002 6
0.21600001 0.447 0.0020000001 7
0.236 0.324 -0.028999999 5
0.24600001 0.33500001 -0.023 4
0.24699999 0.33500001 -0.017999999 4
0.22499999 0.34299999 -0.028999999 4
0.25299999 0.33899999 -0.013 5
0.228 0.34400001 -0.023 4
0.227 0.33899999 -0.017999999 4
0.21799999 0.36899999 -0.028999999 5
0.233 0.34299999 -0.014 5
0.223 0.37200001 -0.024 5
0.221 0.366 -0.018999999 5
0.226 0.426 -0.032000002 6
0.227 0.37 -0.016000001 5
0.23100001 0.43099999 -0.028000001 6
0.226 0.41499999 -0.022 5
0.205 0.43599999 -0.032000002 6
0.222 0.40099999 -0.017999999 5
0.208 0.43599999 -0.027000001 6
0.20999999 0.43399999 -0.023 6
0.219 0.44400001 -0.021 7
0.23800001 0.322 -0.034000002 5
0.248 0.333 -0.023 4
0.248 0.331 -0.012 4
0.223 0.333 -0.033 5
0.257 0.34 -0.0020000001 5
0.228 0.338 -0.022 4
0.229 0.338 -0.012 4
0.21600001 0.359 -0.034000002 5
0.235 0.34200001 -0.0020000001 5
0.219 0.361 -0.023 4
0.22499999 0.36700001 -0.013 4
0.227 0.42199999 -0.037999999 7
0.23199999 0.37200001 -0.003 5
0.21699999 0.39300001 -0.013 5
0.207 0.43399999 -0.037 6
0.226 0.40200001 -0.0040000002 6
0.211 0.435 -0.026000001 6
0.214 0.433 -0.015 6
0.222 0.442 -0.0049999999 7
0.20100001 0.45100001 -0.0060000001 7
0.23800001 0.32699999 -0.0070000002 5
0.242 0.329 0.0040000002 4
0.249 0.336 0.016000001 4
0.223 0.33899999 -0.0060000001 5
0.227 0.34099999 0.0049999999 4
0.242 0.338 0.027000001 5
0.237 0.352 0.016000001 4
0.22400001 0.37799999 -0.0060000001 5
0.22400001 0.37200001 0.0049999999 5
0.233 0.35699999 0.027000001 5
0.23800001 0.391 0.017999999 5
0.222 0.41999999 -0.0060000001 6
0.214 0.39700001 0.0060000001 5
0.23199999 0.39399999 0.028999999 6
0.22400001 0.40900001 0.017999999 5
0.205 0.43799999 -0.0049999999 7
0.20999999 0.43799999 0.0070000002 6
0.215 0.40700001 0.028999999 6
0.222 0.45300001 0.018999999 6
0.20900001 0.442 0.029999999 7
0.249 0.34200001 0.037 5
0.249 0.34 0.048 4
0.233 0.354 0.037 5
0.243 0.345 0.059999999 5
0.244 0.36700001 0.050999999 4
0.24699999 0.347 0.071999997 5
0.233 0.39500001 0.041000001 6
0.241 0.377 0.064000003 4
0.241 0.40200001 0.055 5
0.245 0.37799999 0.075999998 5
0.215 0.40799999 0.041999999 6
0.23100001 0.40200001 0.066 5
0.226 0.41999999 0.056000002 5
0.23800001 0.405 0.079000004 6
0.204 0.435 0.045000002 6
0.213 0.412 0.066 5
0.206 0.43000001 0.057 5
0.221 0.419 0.079000004 6
0.2 0.42300001 0.078000002 6
0.40000001 -0.034000002 0.11 5
0.41800001 -0.017000001 0.116 6
0.419 -0.022 0.106 5
0.42199999 0 0.118 6
0.42300001 -0.0040000002 0.108 5
0.426 -0.0080000004 0.098999999 5
0.419 -0.0020000001 0.088 5
0.43700001 0.018999999 0.123 6
0.43799999 0.015 0.112 5
0.43399999 0.011 0.101 5
0.42399999 0.017000001 0.089000002 5
0.45199999 0.039000001 0.12899999 6
0.44999999 0.035999998 0.116 5
0.43900001 0.030999999 0.103 5
0.433 0.037999999 0.090999998 6
0.45699999 0.059999999 0.132 6
0.461 0.057 0.121 5
0.249 0.35100001 0.097000003 5
0.249 0.35100001 0.108 5
0.25299999 0.35499999 0.121 5
0.24699999 0.38600001 0.103 6
0.26100001 0.36500001 0.13600001 6
0.25 0.38800001 0.116 5
0.248 0.38499999 0.127 5
0.236 0.41100001 0.108 7
0.25799999 0.39500001 0.14300001 6
0.237 0.41 0.12 6
0.23800001 0.40799999 0.132 6
0.214 0.41800001 0.108 6
0.248 0.41999999 0.148 7
0.21600001 0.417 0.119 6
0.22 0.419 0.132 6
0.23 0.43099999 0.148 7
0.20100001 0.42899999 0.133 6
0.212 0.442 0.148 7
0.38100001 -0.13500001 0.171 5
0.38499999 -0.127 0.171 5
0.37400001 -0.127 0.15899999 4
0.38999999 -0.11 0.17299999 5
0.38800001 -0.122 0.16500001 5
0.398 -0.093999997 0.176 5
0.39899999 -0.106 0.168 5
0.384 -0.104 0.153 5
0.41 -0.078000002 0.18000001 6
0.40000001 -0.088 0.167 5
0.39199999 -0.086999997 0.155 5
0.40700001 -0.059999999 0.17900001 6
0.41299999 -0.071999997 0.17200001 5
0.39300001 -0.086999997 0.146 5
0.40099999 -0.07 0.15800001 5
0.41800001 -0.043000001 0.184 6
0.41800001 -0.052999999 0.17299999 5
0.39700001 -0.068999998 0.146 5
0.40900001 -0.052000001 0.16 5
0.428 -0.026000001 0.189 6
0.42699999 -0.035 0.177 5
0.40700001 -0.050999999 0.149 6
0.41299999 -0.034000002 0.161 5
0.43399999 -0.0070000002 0.192 6
0.433 -0.016000001 0.18000001 5
0.41600001 -0.032000002 0.152 6
0.42300001 -0.015 0.16500001 5
0.442 0.011 0.197 6
0.44600001 0.0020000001 0.186 5
0.42500001 -0.013 0.155 6
0.43000001 0.003 0.168 5
0.454 0.029999999 0.20299999 7
0.45899999 0.022 0.192 6
0.43599999 0.0070000002 0.15899999 6
0.44299999 0.024 0.17399999 6
0.465 0.050999999 0.20999999 7
0.463 0.043000001 0.19499999 6
0.44299999 0.028000001 0.162 6
0.45100001 0.045000002 0.178 6
0.47 0.071999997 0.215 7
0.48100001 0.067000002 0.205 6
0.45500001 0.050000001 0.167 6
0.46399999 0.068000004 0.185 6
0.48800001 0.096000001 0.226 8
0.486 0.089000002 0.20900001 6
0.47 0.075000003 0.17399999 7
0.479 0.093000002 0.192 6
0.26300001 0.36700001 0.17399999 6
0.264 0.37200001 0.18799999 6
0.266 0.37799999 0.204 6
0.252 0.38999999 0.18000001 7
0.27399999 0.38999999 0.22400001 7
0.25099999 0.391 0.193 6
0.252 0.39500001 0.207 6
0.243 0.419 0.189 7
0.25799999 0.403 0.22499999 7
0.243 0.41999999 0.20200001 6
0.245 0.42399999 0.21699999 7
0.22499999 0.435 0.192 7
0.249 0.42899999 0.233 8
0.227 0.43599999 0.21799999 7
0.23100001 0.43900001 0.233 8
0.2 0.43099999 0.211 6
0.206 0.43599999 0.226 7
