# .PCD v0.7 - Point Cloud Data file format
VERSION 0.7
FIELDS x y z intensity
SIZE 4 4 4 4
TYPE F F F F
COUNT 1 1 1 1
WIDTH 1142
HEIGHT 1
VIEWPOINT 0 0 0 1 0 0 0
POINTS 1142
DATA ascii
0.359 0.48300001 -0.026000001 8
0.32600001 0.491 -0.056000002 9
0.37099999 0.493 -0.012 12
0.32800001 0.49000001 -0.039999999 7
0.32699999 0.48500001 -0.026000001 6
0.28400001 0.47499999 -0.050999999 9
0.292 0.484 -0.037999999 6
0.30000001 0.49200001 -0.026000001 7
0.26899999 0.50300002 -0.052000001 9
0.27500001 0.50800002 -0.039000001 8
0.27599999 0.50300002 -0.026000001 8
0.242 0.509 -0.050000001 8
0.249 0.51499999 -0.037999999 8
0.25099999 0.51300001 -0.026000001 8
0.221 0.51999998 -0.037999999 7
0.223 0.51499999 -0.026000001 7
0.815 0.052999999 0.030999999 17
0.81400001 0.071000002 0.032000002 17
0.81900001 0.089000002 0.033 17
0.82200003 0.096000001 0.0060000001 14
0.81699997 0.108 0.033 17
0.82200003 0.115 0.0060000001 14
0.82200003 0.127 0.034000002 17
0.81900001 0.134 0.0070000002 14
0.81300002 0.14 -0.018999999 5
0.82200003 0.146 0.034000002 17
0.82300001 0.154 0.0070000002 14
0.824 0.16500001 0.035 18
0.477 0.40900001 -0.032000002 10
0.484 0.41600001 -0.012 9
0.486 0.41800001 0.0070000002 9
0.465 0.43900001 -0.032000002 10
0.498 0.428 0.027000001 10
0.472 0.44600001 -0.011 9
0.48500001 0.435 0.027000001 11
0.48699999 0.45899999 0.0080000004 9
0.45699999 0.47600001 -0.032000002 11
0.486 0.456 0.027000001 11
0.442 0.45899999 -0.011 9
0.449 0.491 -0.032000002 9
0.44100001 0.456 0.0070000002 9
0.412 0.472 -0.029999999 9
0.45899999 0.47099999 0.026000001 10
0.414 0.47099999 -0.0099999998 8
0.41800001 0.47400001 0.0070000002 9
0.375 0.47400001 -0.028000001 9
0.43000001 0.484 0.025 10
0.377 0.47299999 -0.0099999998 8
0.38999999 0.486 0.0070000002 9
0.352 0.49200001 -0.027000001 10
0.40200001 0.495 0.024 10
0.35800001 0.49399999 -0.0089999996 8
0.34799999 0.477 0.0060000001 7
0.31 0.479 -0.025 8
0.359 0.486 0.022 9
0.32100001 0.49000001 -0.0089999996 7
0.329 0.49700001 0.0060000001 8
0.29300001 0.50400001 -0.024 9
0.34099999 0.50700003 0.022 9
0.29899999 0.50700003 -0.0080000004 8
0.30199999 0.505 0.0060000001 8
0.26699999 0.51599997 -0.023 9
0.31099999 0.51200002 0.021 9
0.27000001 0.50999999 -0.0080000004 8
0.27000001 0.50199997 0.0060000001 8
0.23800001 0.51800001 -0.022 8
0.28 0.51099998 0.02 9
0.23999999 0.51200002 -0.0070000002 7
0.245 0.51200002 0.0060000001 8
0.211 0.52399999 -0.021 9
0.26199999 0.53500003 0.018999999 9
0.21799999 0.52700001 -0.0070000002 7
0.228 0.53899997 0.0060000001 8
0.23899999 0.55000001 0.017999999 9
0.20200001 0.56 -0.0070000002 8
0.207 0.55900002 0.0060000001 8
0.215 0.565 0.017999999 9
0.81300002 -0.017999999 0.093999997 16
0.824 -0.018999999 0.072999999 12
0.82200003 0 0.096000001 17
0.82200003 0 0.074000001 12
0.82200003 0.017000001 0.096000001 17
0.815 0.017000001 0.072999999 12
0.82300001 0.017000001 0.052999999 13
0.824 0.035 0.097000003 17
0.82300001 0.035999998 0.075000003 12
0.82300001 0.037 0.052999999 13
0.81800002 0.052999999 0.097000003 16
0.81999999 0.055 0.075000003 12
0.82200003 0.056000002 0.052999999 13
0.81999999 0.057999998 0.029999999 15
0.82700002 0.071999997 0.098999999 15
0.824 0.074000001 0.075999998 12
0.81999999 0.075000003 0.052999999 13
0.81999999 0.078000002 0.029999999 15
0.82800001 0.090000004 0.1 15
0.82300001 0.092 0.075999998 13
0.81800002 0.093999997 0.052999999 13
0.81900001 0.097000003 0.029999999 15
0.829 0.108 0.101 15
0.82800001 0.112 0.077 13
0.81599998 0.113 0.054000001 13
0.81599998 0.117 0.029999999 15
0.82700002 0.127 0.102 15
0.82800001 0.131 0.078000002 13
0.829 0.13500001 0.055 13
0.81999999 0.138 0.030999999 16
0.824 0.145 0.102 15
0.82499999 0.15000001 0.079000004 13
0.81999999 0.153 0.055 13
0.82099998 0.15800001 0.030999999 16
0.82999998 0.164 0.104 15
0.82700002 0.17 0.079000004 13
0.82499999 0.17399999 0.055 13
0.829 0.183 0.105 15
0.82499999 0.189 0.079999998 13
0.82099998 0.2 0.105 17
0.49000001 0.41 0.027000001 10
0.495 0.41600001 0.046999998 9
0.49599999 0.41800001 0.066 9
0.509 0.447 0.048999999 9
0.48699999 0.449 0.028000001 11
0.50999999 0.43000001 0.086999997 10
0.48699999 0.44999999 0.068000004 10
0.48699999 0.47099999 0.048999999 9
0.465 0.472 0.028999999 10
0.49900001 0.46000001 0.089000002 10
0.47999999 0.463 0.086999997 11
0.47299999 0.47799999 0.068999998 8
0.449 0.47600001 0.048 9
0.428 0.47799999 0.028999999 10
0.44600001 0.47 0.085000001 11
0.43900001 0.486 0.067000002 8
0.42699999 0.49700001 0.048999999 9
0.39899999 0.491 0.028999999 10
0.414 0.47999999 0.064999998 9
0.412 0.47499999 0.082000002 10
0.37099999 0.47499999 0.045000002 8
0.35699999 0.48500001 0.028000001 9
0.37799999 0.48100001 0.063000001 8
0.39199999 0.493 0.082000002 9
0.354 0.50099999 0.046999998 9
0.336 0.50599998 0.028999999 9
0.352 0.49200001 0.063000001 8
0.352 0.48699999 0.078000002 8
0.315 0.493 0.045000002 7
0.301 0.50400001 0.028999999 8
0.31600001 0.48800001 0.059999999 8
0.333 0.50700003 0.078000002 8
0.29499999 0.514 0.046 7
0.27500001 0.51599997 0.029999999 7
0.30199999 0.51599997 0.061999999 8
0.308 0.51800001 0.078000002 9
0.27599999 0.53600001 0.046999998 9
0.25799999 0.54299998 0.032000002 9
0.273 0.52100003 0.061000001 7
0.27599999 0.514 0.075000003 9
0.244 0.53399998 0.046999998 7
0.229 0.54900002 0.032000002 8
0.249 0.53200001 0.061000001 8
0.255 0.53299999 0.075000003 9
0.22499999 0.55900002 0.048 8
0.206 0.56900001 0.034000002 8
0.22400001 0.54299998 0.061000001 8
0.229 0.53899997 0.074000001 9
0.20100001 0.56 0.061999999 8
0.20900001 0.56099999 0.075000003 8
0.82800001 0 0.133 17
0.83600003 0.034000002 0.19499999 15
0.833 0.028999999 0.17299999 12
0.82999998 0.023 0.153 13
0.83099997 0.018999999 0.133 15
0.83700001 0.052999999 0.19599999 16
0.833 0.048 0.17399999 13
0.82999998 0.043000001 0.154 13
0.82700002 0.039000001 0.133 15
0.83600003 0.071000002 0.197 15
0.84200001 0.068000004 0.177 13
0.83499998 0.061999999 0.155 13
0.829 0.059 0.133 15
0.84100002 0.089000002 0.2 16
0.84100002 0.086000003 0.177 13
0.83499998 0.082000002 0.156 13
0.829 0.079000004 0.134 15
0.83099997 0.107 0.198 15
0.84200001 0.106 0.17900001 13
0.83700001 0.102 0.15700001 13
0.82999998 0.098999999 0.134 15
0.84500003 0.127 0.20299999 16
0.83899999 0.124 0.17900001 13
0.83600003 0.121 0.15700001 13
0.82700002 0.119 0.134 15
0.84399998 0.146 0.204 16
0.83999997 0.14399999 0.18099999 13
0.83700001 0.141 0.15800001 13
0.83399999 0.14 0.13600001 15
0.83999997 0.164 0.205 16
0.84299999 0.164 0.183 13
0.83499998 0.161 0.15899999 13
0.83600003 0.161 0.13699999 15
0.84500003 0.184 0.208 17
0.84299999 0.184 0.184 13
0.83999997 0.182 0.161 13
0.83600003 0.182 0.138 15
0.84500003 0.20299999 0.20999999 16
0.84299999 0.204 0.185 12
0.84100002 0.20299999 0.162 13
0.838 0.204 0.139 15
0.84500003 0.222 0.211 16
0.84399998 0.22400001 0.18700001 13
0.84100002 0.22400001 0.164 13
0.84299999 0.227 0.141 16
0.85500002 0.245 0.21600001 16
0.84500003 0.244 0.189 13
0.83200002 0.242 0.163 10
0.85100001 0.264 0.21699999 0
0.84100002 0.264 0.19 4
0.5 0.41800001 0.109 11
0.51099998 0.43200001 0.131 9
0.50099999 0.44 0.112 11
0.50400001 0.43200001 0.149 10
0.505 0.43599999 0.168 12
0.493 0.458 0.132 10
0.479 0.463 0.113 11
0.505 0.45500001 0.17200001 11
0.498 0.46700001 0.153 10
0.49200001 0.463 0.171 12
0.46900001 0.47799999 0.132 10
0.45100001 0.479 0.112 9
0.44299999 0.454 0.14300001 9
0.46599999 0.479 0.169 11
0.449 0.48199999 0.149 8
0.42699999 0.47799999 0.127 8
0.403 0.472 0.107 9
0.41299999 0.46200001 0.15700001 10
0.403 0.47400001 0.141 8
0.398 0.48899999 0.126 8
0.37599999 0.48699999 0.106 8
0.38299999 0.46900001 0.153 10
0.38999999 0.50300002 0.14399999 9
0.37900001 0.514 0.12800001 9
0.35699999 0.51099998 0.109 10
0.37200001 0.498 0.15700001 10
0.36000001 0.50999999 0.142 7
0.33700001 0.50400001 0.122 7
0.31999999 0.50800002 0.105 8
0.34400001 0.505 0.155 8
0.33199999 0.51899999 0.14 6
0.324 0.53600001 0.127 8
0.29800001 0.52700001 0.107 9
0.31600001 0.51200002 0.152 10
0.303 0.52399999 0.138 8
0.287 0.52999997 0.123 8
0.266 0.528 0.106 9
0.29100001 0.52100003 0.15099999 10
0.27500001 0.52899998 0.13600001 8
0.257 0.53299999 0.121 8
0.237 0.53299999 0.105 9
0.26100001 0.51899999 0.147 9
0.245 0.52999997 0.134 8
0.228 0.53500003 0.119 7
0.208 0.537 0.105 9
0.236 0.52700001 0.145 9
0.21799999 0.53200001 0.132 8
0.20100001 0.54000002 0.119 8
0.211 0.53299999 0.14399999 9
0.833 0.108 0.30399999 0
0.847 0.098999999 0.28600001 13
0.84600002 0.090999998 0.26199999 16
0.85100001 0.12 0.28799999 15
0.85000002 0.112 0.26499999 16
0.83200002 0.13699999 0.28299999 1
0.84899998 0.132 0.26499999 16
0.85299999 0.154 0.26800001 16
0.84100002 0.17200001 0.266 1
0.72799999 0.34099999 0.322 5
0.72899997 0.361 0.32699999 16
0.69700003 0.36399999 0.31600001 14
0.69 0.37900001 0.317 16
0.708 0.39300001 0.30199999 2
0.67199999 0.38800001 0.31299999 15
0.685 0.40000001 0.296 4
0.65799999 0.39899999 0.31099999 15
0.662 0.40599999 0.28999999 7
0.65100002 0.414 0.31200001 15
0.65799999 0.42500001 0.29300001 12
0.66600001 0.435 0.27399999 2
0.625 0.41600001 0.30399999 14
0.639 0.433 0.289 9
0.64899999 0.44499999 0.27200001 11
0.60699999 0.42300001 0.30000001 14
0.61900002 0.43900001 0.28400001 10
0.634 0.45699999 0.27000001 10
0.59299999 0.433 0.29800001 14
0.60799998 0.45300001 0.285 11
0.59799999 0.45199999 0.25999999 9
0.61699998 0.477 0.248 4
0.58399999 0.44600001 0.29800001 13
0.583 0.454 0.278 11
0.58899999 0.46799999 0.26100001 10
0.59100002 0.479 0.242 13
0.565 0.44999999 0.29300001 13
0.56599998 0.461 0.27500001 10
0.53500003 0.44499999 0.242 7
0.523 0.44600001 0.219 11
0.55299997 0.46000001 0.29300001 12
0.52999997 0.45300001 0.26300001 9
0.52700001 0.45899999 0.243 10
0.51099998 0.45699999 0.219 11
0.528 0.45899999 0.285 12
0.51700002 0.46200001 0.26199999 9
0.514 0.46900001 0.243 10
0.49900001 0.46900001 0.219 11
0.51700002 0.46900001 0.28400001 12
0.50199997 0.46900001 0.259 10
0.49399999 0.47299999 0.23899999 10
0.47999999 0.472 0.21600001 11
0.49900001 0.47299999 0.28 12
0.48500001 0.47299999 0.25600001 8
0.44499999 0.46000001 0.206 10
0.47 0.46399999 0.26899999 10
0.46200001 0.47099999 0.25 7
0.449 0.472 0.228 8
0.43599999 0.465 0.242 8
0.405 0.461 0.198 10
0.44400001 0.47799999 0.266 10
0.40799999 0.47 0.21799999 9
0.41100001 0.47999999 0.23999999 9
0.37900001 0.47600001 0.198 10
0.419 0.491 0.26300001 10
0.38299999 0.486 0.21799999 9
0.38 0.48500001 0.234 9
0.359 0.498 0.20100001 11
0.391 0.50099999 0.259 10
0.36199999 0.50400001 0.219 9
0.36000001 0.505 0.236 8
0.33000001 0.50700003 0.199 10
0.36000001 0.50400001 0.25299999 9
0.336 0.51800001 0.219 9
0.35499999 0.52100003 0.257 10
0.345 0.53299999 0.242 8
0.30000001 0.51300001 0.19599999 10
0.30700001 0.52499998 0.21600001 9
0.28799999 0.52200001 0.197 9
0.333 0.537 0.25799999 10
0.315 0.53799999 0.23800001 8
0.27599999 0.52600002 0.212 8
0.26199999 0.53399998 0.198 8
0.29800001 0.53100002 0.248 8
0.28099999 0.53299999 0.23100001 5
0.255 0.54699999 0.21600001 8
0.23800001 0.54900002 0.20100001 9
0.27700001 0.54699999 0.25 10
0.26300001 0.55800003 0.236 8
0.21799999 0.52899998 0.206 8
0.207 0.55000001 0.198 9
0.249 0.54900002 0.245 10
0.227 0.54500002 0.227 7
0.235 0.55000001 0.243 10
0.20200001 0.55199999 0.226 8
0.211 0.55900002 0.243 9
0.88 0.12 0.51499999 5
0.87 0.13699999 0.51200002 6
0.88099998 0.15800001 0.52100003 6
0.84200001 0.17 0.50099999 6
0.84100002 0.18799999 0.50400001 6
0.88599998 0.182 0.495 6
0.79500002 0.19499999 0.479 13
0.84899998 0.19400001 0.477 6
0.78500003 0.20999999 0.47600001 14
0.80900002 0.20299999 0.45699999 11
0.77499998 0.22499999 0.47400001 11
0.792 0.21799999 0.45100001 9
0.82999998 0.21600001 0.44 5
0.77600002 0.243 0.47799999 13
0.78100002 0.233 0.44800001 10
0.80500001 0.229 0.43000001 8
0.759 0.25600001 0.47099999 11
0.77600002 0.25 0.44800001 10
0.778 0.241 0.419 8
0.74800003 0.27000001 0.46900001 9
0.75400001 0.26199999 0.44 8
0.76999998 0.257 0.41800001 12
0.78299999 0.25400001 0.39500001 8
0.75999999 0.292 0.47999999 5
0.75400001 0.28099999 0.44400001 10
0.74599999 0.26899999 0.40900001 10
0.76700002 0.26899999 0.38999999 11
0.75599998 0.30899999 0.48300001 0
0.73699999 0.29300001 0.43799999 8
0.74900001 0.289 0.414 11
0.75999999 0.287 0.391 16
0.76800001 0.333 0.495 0
0.71799999 0.30399999 0.43099999 8
0.727 0.30000001 0.40599999 9
0.741 0.30000001 0.38499999 13
0.72899997 0.33399999 0.47499999 0
0.713 0.31999999 0.43200001 8
0.72500002 0.31900001 0.41 12
0.73000002 0.31600001 0.384 14
0.70300001 0.33500001 0.43099999 8
0.69800001 0.32600001 0.39899999 9
0.71700001 0.331 0.38100001 15
0.68599999 0.345 0.426 7
0.699 0.347 0.405 11
0.69300002 0.34 0.373 12
0.676 0.359 0.42500001 4
0.67699999 0.35499999 0.39700001 10
0.68800002 0.35800001 0.375 15
0.68000001 0.38 0.433 1
0.65799999 0.36399999 0.38999999 7
0.65899998 0.36300001 0.36500001 10
0.66500002 0.39199999 0.42899999 1
0.66000003 0.38600001 0.39700001 6
0.648 0.37799999 0.36399999 11
0.64300001 0.396 0.39300001 4
0.63599998 0.391 0.36300001 11
0.62699997 0.40599999 0.389 4
0.62199998 0.40400001 0.361 12
0.60900003 0.41499999 0.38499999 4
0.60299999 0.41299999 0.35600001 11
0.611 0.43700001 0.39300001 1
0.58999997 0.42399999 0.35499999 10
0.583 0.43799999 0.382 0
0.57599998 0.43599999 0.35299999 11
0.56800002 0.45100001 0.35499999 11
0.55299997 0.461 0.35299999 14
0.53600001 0.46900001 0.34999999 14
0.53799999 0.48699999 0.382 0
0.51899999 0.477 0.347 9
0.51099998 0.484 0.37 1
0.50199997 0.484 0.34400001 12
0.49200001 0.48800001 0.36500001 3
0.47999999 0.48500001 0.33700001 11
0.48500001 0.50400001 0.36899999 4
0.47099999 0.5 0.34 10
0.46399999 0.505 0.36300001 6
0.454 0.505 0.33700001 8
0.47 0.53600001 0.377 9
0.44600001 0.51999998 0.34099999 7
0.449 0.53600001 0.37 4
0.414 0.50800002 0.32699999 6
0.43900001 0.55000001 0.37400001 5
0.417 0.537 0.34 6
0.368 0.49900001 0.31 9
0.36300001 0.51700002 0.317 10
0.35800001 0.53799999 0.32499999 11
0.35100001 0.53299999 0.34 5
0.33899999 0.53500003 0.31900001 7
0.338 0.52100003 0.35100001 4
0.324 0.54100001 0.31799999 10
0.31400001 0.50800002 0.338 5
0.315 0.53100002 0.33000001 6
0.30700001 0.498 0.34900001 8
0.30199999 0.51300001 0.33700001 5
0.30199999 0.537 0.33000001 8
0.296 0.55199999 0.31799999 10
0.289 0.51700002 0.33500001 8
0.289 0.542 0.33000001 8
0.28400001 0.50599998 0.345 10
0.27599999 0.52100003 0.33399999 5
0.27000001 0.56800002 0.32100001 10
0.26699999 0.56199998 0.33500001 9
0.257 0.57599998 0.322 6
0.25799999 0.50999999 0.34 7
0.26100001 0.55000001 0.345 5
0.25999999 0.57999998 0.34299999 4
0.25299999 0.565 0.35100001 5
0.22 0.56300002 0.31 7
0.24699999 0.54400003 0.35499999 3
0.23 0.58499998 0.34 2
0.97000003 -0.149 0.778 6
0.352 0.449 0.46799999 1
0.36300001 0.47499999 0.463 1
0.36899999 0.495 0.45100001 5
0.33000001 0.43900001 0.44999999 0
0.33399999 0.45899999 0.44 2
0.33199999 0.46700001 0.419 3
0.331 0.479 0.403 4
0.32600001 0.454 0.458 4
0.31099999 0.44600001 0.421 4
0.31 0.458 0.405 5
0.30399999 0.442 0.43900001 5
0.29899999 0.44999999 0.41800001 5
0.296 0.46000001 0.40099999 6
0.29300001 0.47099999 0.38499999 8
0.285 0.465 0.40000001 9
0.27900001 0.47400001 0.38299999 9
0.28400001 0.45199999 0.43599999 3
0.28 0.46399999 0.41999999 6
0.25799999 0.46399999 0.37 8
0.25799999 0.46900001 0.39399999 8
0.248 0.47099999 0.37200001 7
0.25999999 0.45500001 0.42699999 3
0.252 0.46200001 0.40700001 5
0.243 0.47 0.41 8
0.233 0.47400001 0.389 4
0.229 0.48899999 0.38 5
0.23899999 0.463 0.42300001 9
0.226 0.48800001 0.417 8
0.21699999 0.49700001 0.40099999 5
0.215 0.523 0.39899999 3
0.22499999 0.48300001 0.43200001 3
0.213 0.48699999 0.412 5
0.226 0.58999997 0.447 8
0.204 0.49599999 0.41499999 5
0.221 0.57599998 0.45699999 2
0.207 0.498 0.43599999 3
0.204 0.528 0.43900001 2
0.215 0.60000002 0.47299999 4
0.20900001 0.579 0.477 0
0.204 0.55599999 0.47799999 1
0.80199999 -0.192 0.86199999 9
0.75400001 -0.163 0.80800003 7
0.81199998 -0.15800001 0.86799997 1
0.88999999 -0.154 0.94999999 9
0.81800002 -0.17399999 0.81099999 11
0.92799997 -0.141 0.99000001 7
0.81900001 -0.156 0.80900002 5
0.91600001 -0.119 0.97500002 0
0.92900002 -0.156 0.91500002 5
0.89999998 -0.18000001 0.82700002 9
0.95999998 -0.14 0.94400001 7
0.87099999 -0.154 0.79699999 5
0.92699999 -0.167 0.78799999 13
0.954 -0.126 0.86699998 3
0.954 -0.15000001 0.80699998 2
0.91600001 -0.1 0.83099997 0
0.958 -0.12800001 0.80699998 5
0.94499999 -0.104 0.79400003 7
0.331 0.43200001 0.47400001 0
0.317 0.435 0.47 0
0.31400001 0.42300001 0.51999998 1
0.30899999 0.43000001 0.491 2
0.287 0.414 0.44 1
0.29800001 0.41999999 0.50800002 3
0.29800001 0.43399999 0.48899999 3
0.28799999 0.43700001 0.45899999 3
0.28099999 0.414 0.493 2
0.28400001 0.435 0.48300001 3
0.27500001 0.43900001 0.45500001 3
0.271 0.419 0.49200001 2
0.27200001 0.43799999 0.47999999 4
0.26499999 0.44600001 0.45699999 3
0.25600001 0.41499999 0.48100001 2
0.25099999 0.44499999 0.45100001 5
0.25 0.426 0.486 1
0.248 0.442 0.47299999 7
0.241 0.45199999 0.45300001 5
0.241 0.43099999 0.486 1
0.23199999 0.43700001 0.48699999 1
0.229 0.45500001 0.47600001 5
0.223 0.47 0.46200001 3
0.226 0.44999999 0.495 1
0.211 0.47299999 0.461 3
0.21600001 0.45300001 0.49399999 1
0.20999999 0.47 0.48199999 1
0.204 0.48899999 0.47299999 2
0.22499999 0.46599999 0.53200001 0
0.20900001 0.465 0.50099999 0
0.205 0.48899999 0.49599999 0
0.204 0.523 0.50300002 3
0.211 0.45899999 0.51899999 0
0.20299999 0.47799999 0.50999999 0
0.205 0.51899999 0.523 0
0.20299999 0.46799999 0.523 0
0.208 0.52200001 0.551 0
0.75800002 -0.18099999 0.81999999 11
0.74699998 -0.161 0.80400002 7
0.82700002 -0.15899999 0.88599998 1
0.80900002 -0.168 0.79699999 13
0.89099997 -0.15099999 0.95099998 10
0.85699999 -0.15700001 0.83999997 1
0.91500002 -0.13500001 0.97299999 7
0.96100003 -0.153 0.93800002 8
0.96600002 -0.132 0.93900001 3
0.29100001 0.40700001 0.5 1
0.285 0.419 0.509 3
0.26800001 0.41499999 0.49599999 1
0.252 0.41100001 0.486 1
0.243 0.41600001 0.48699999 1
0.235 0.42500001 0.49200001 1
0.227 0.43399999 0.49599999 1
0.223 0.45199999 0.51300001 0
0.20900001 0.449 0.505 0
0.20299999 0.463 0.51599997 1
0.79400003 -0.17299999 0.80000001 13
0.81099999 -0.15800001 0.81300002 2
0.917 -0.156 0.91399997 4
0.93800002 -0.138 0.93199998 6
0.296 0.41999999 0.51999998 1
0.27700001 0.412 0.50300002 1
0.26699999 0.41800001 0.50400001 1
0.25400001 0.41800001 0.498 1
0.245 0.42300001 0.498 1
0.234 0.428 0.498 0
0.22400001 0.45699999 0.52200001 0
0.20999999 0.45300001 0.51300001 1
0.208 0.47600001 0.53500003 0
0.759 -0.18000001 0.81800002 12
0.81199998 -0.171 0.79699999 12
0.875 -0.164 0.78600001 13
0.74699998 -0.16 0.80000001 7
0.833 -0.156 0.81300002 2
0.93900001 -0.153 0.83999997 1
0.82599998 -0.15899999 0.88099998 1
0.93199998 -0.154 0.90600002 1
0.89200002 -0.152 0.94599998 10
0.97600001 -0.138 0.94400001 8
0.93300003 -0.108 0.82700002 6
0.91900003 -0.13600001 0.97100002 6
0.338 0.442 0.498 0
0.31400001 0.43000001 0.477 0
0.333 0.43399999 0.50999999 1
0.301 0.433 0.47400001 3
0.30599999 0.41600001 0.48199999 1
0.285 0.43000001 0.46399999 3
0.29800001 0.426 0.484 3
0.273 0.43200001 0.46000001 3
0.28600001 0.42899999 0.48100001 3
0.26300001 0.43799999 0.46000001 3
0.296 0.41800001 0.49399999 2
0.28 0.44 0.486 3
0.25400001 0.447 0.46399999 8
0.27599999 0.40799999 0.47499999 1
0.259 0.42899999 0.46700001 5
0.303 0.421 0.514 3
0.27200001 0.42399999 0.48500001 2
0.237 0.46200001 0.47 10
0.287 0.419 0.50199997 3
0.26300001 0.43099999 0.484 3
0.245 0.449 0.47600001 7
0.27200001 0.417 0.48899999 3
0.25299999 0.43700001 0.484 2
0.233 0.45199999 0.47400001 7
0.21600001 0.472 0.47099999 5
0.26300001 0.42399999 0.48800001 2
0.242 0.44 0.47999999 2
0.25099999 0.426 0.48199999 2
0.235 0.45100001 0.48500001 2
0.21699999 0.47099999 0.48199999 2
0.205 0.50800002 0.49900001 3
0.23999999 0.43000001 0.47799999 1
0.22400001 0.454 0.48199999 2
0.23199999 0.43900001 0.48100001 1
0.21600001 0.46399999 0.486 2
0.204 0.50099999 0.50300002 1
0.227 0.454 0.48899999 3
0.206 0.47099999 0.48699999 1
0.20100001 0.528 0.52499998 0
0.21699999 0.46200001 0.49000001 3
0.205 0.498 0.509 0
0.206 0.46700001 0.48800001 1
0.99699998 -0.15800001 0.77399999 10
0.93099999 -0.15800001 0.778 12
0.866 -0.16500001 0.78399998 15
0.898 -0.152 0.80900002 1
0.95099998 -0.119 0.78799999 6
0.94599998 -0.097000003 0.78100002 2
0.92000002 -0.116 0.81999999 6
0.38299999 0.498 0.449 11
0.36500001 0.49700001 0.44100001 9
0.32499999 0.46399999 0.405 5
0.30700001 0.461 0.39700001 9
0.32699999 0.463 0.417 4
0.361 0.47999999 0.45300001 4
0.28 0.463 0.389 9
0.32600001 0.45500001 0.421 3
0.29699999 0.46399999 0.40400001 6
0.37 0.484 0.46700001 1
0.28400001 0.46599999 0.40099999 9
0.25299999 0.46399999 0.38 5
0.336 0.461 0.435 3
0.29699999 0.458 0.40900001 6
0.26800001 0.463 0.39300001 6
0.31099999 0.449 0.41600001 7
0.227 0.46700001 0.37400001 5
0.30000001 0.454 0.41299999 8
0.271 0.46200001 0.40000001 5
0.243 0.46799999 0.38699999 6
0.25600001 0.461 0.39199999 7
0.21600001 0.49900001 0.39300001 9
0.27599999 0.46399999 0.40599999 9
0.24699999 0.47 0.39399999 6
0.222 0.47999999 0.38699999 5
0.219 0.50099999 0.40000001 8
0.222 0.583 0.45199999 3
0.248 0.465 0.39399999 8
0.226 0.48100001 0.39300001 5
0.20900001 0.509 0.40200001 4
0.236 0.46900001 0.38999999 8
0.21799999 0.56800002 0.44400001 4
0.207 0.49900001 0.398 5
0.221 0.49599999 0.40000001 9
0.21600001 0.59899998 0.46700001 5
0.211 0.542 0.426 3
0.21600001 0.59500003 0.46200001 8
0.88300002 0.149 0.49700001 0
0.85699999 0.12899999 0.50999999 8
0.87900001 0.169 0.49599999 6
0.82999998 0.19400001 0.44499999 4
0.86000001 0.149 0.51200002 6
0.87099999 0.18799999 0.493 6
0.81 0.20900001 0.43700001 9
0.84500003 0.16599999 0.505 5
0.80299997 0.193 0.45699999 10
0.79400003 0.22499999 0.43099999 10
0.87199998 0.148 0.54699999 6
0.83200002 0.182 0.498 5
0.796 0.211 0.45500001 10
0.77399999 0.23899999 0.42300001 11
0.85500002 0.164 0.537 6
0.80299997 0.19499999 0.48199999 8
0.78500003 0.227 0.45100001 10
0.76800001 0.25799999 0.42300001 13
0.82999998 0.178 0.52200001 6
0.792 0.211 0.47799999 9
0.76999998 0.242 0.44499999 9
0.74699998 0.27000001 0.41499999 12
0.82499999 0.19599999 0.51899999 6
0.77999997 0.227 0.472 9
0.76099998 0.259 0.442 8
0.74800003 0.28999999 0.419 14
0.81300002 0.212 0.514 6
0.778 0.24600001 0.47299999 9
0.75199997 0.27500001 0.44100001 10
0.73000002 0.303 0.41299999 13
0.80199999 0.228 0.50800002 6
0.76300001 0.25999999 0.46700001 8
0.73699999 0.289 0.435 9
0.72100002 0.31999999 0.412 14
0.78799999 0.243 0.5 5
0.75599998 0.27599999 0.465 8
0.722 0.30199999 0.43000001 9
0.69199997 0.32600001 0.39899999 11
0.77999997 0.25999999 0.498 4
0.75199997 0.294 0.46599999 7
0.70999998 0.317 0.42699999 9
0.69700003 0.34900001 0.40700001 13
0.76800001 0.27500001 0.49200001 2
0.74599999 0.31200001 0.465 5
0.70300001 0.333 0.426 9
0.67500001 0.35699999 0.39899999 11
0.741 0.33000001 0.46599999 5
0.68800002 0.345 0.421 8
0.66399997 0.37200001 0.398 8
0.708 0.33399999 0.44800001 3
0.69099998 0.36700001 0.428 6
0.65700001 0.38800001 0.39899999 7
0.70099998 0.35100001 0.44800001 2
0.67799997 0.38100001 0.42500001 4
0.64399999 0.40099999 0.396 5
0.67500001 0.39899999 0.428 4
0.62599999 0.41100001 0.391 4
0.648 0.40400001 0.417 0
0.61000001 0.421 0.38699999 4
0.62199998 0.44999999 0.40099999 0
0.52700001 0.484 0.375 1
0.51099998 0.491 0.37200001 4
0.48899999 0.49200001 0.36399999 8
0.47499999 0.5 0.36199999 9
0.465 0.51300001 0.36399999 9
0.49000001 0.51300001 0.38299999 0
0.465 0.537 0.373 8
0.47600001 0.523 0.38100001 4
0.43799999 0.52999997 0.36199999 4
0.47400001 0.54500002 0.389 5
0.44600001 0.56599998 0.37900001 5
0.449 0.54100001 0.37799999 3
0.435 0.54900002 0.377 1
0.368 0.53899997 0.34400001 7
0.347 0.53399998 0.336 7
0.36500001 0.53100002 0.34599999 8
0.33000001 0.53399998 0.33199999 8
0.34999999 0.53500003 0.34299999 5
0.31299999 0.53399998 0.32699999 10
0.36500001 0.52700001 0.34799999 6
0.32699999 0.52600002 0.33199999 5
0.30199999 0.54299998 0.329 10
0.354 0.537 0.34900001 5
0.31600001 0.53600001 0.333 7
0.32800001 0.523 0.33399999 6
0.303 0.542 0.33199999 9
0.27900001 0.55800003 0.33000001 10
0.31600001 0.53200001 0.33399999 8
0.33700001 0.52999997 0.34 9
0.30599999 0.542 0.33500001 8
0.28 0.55800003 0.333 8
0.25999999 0.58700001 0.34099999 5
0.31900001 0.52899998 0.33399999 9
0.294 0.55000001 0.33500001 8
0.248 0.59600002 0.34299999 9
0.308 0.54000002 0.33399999 10
0.28299999 0.56 0.33700001 8
0.25999999 0.58499998 0.34099999 5
0.22400001 0.574 0.32800001 5
0.296 0.54799998 0.33399999 11
0.25400001 0.56599998 0.331 5
0.226 0.57700002 0.33000001 4
0.26899999 0.56 0.33000001 10
0.221 0.56199998 0.32100001 6
0.227 0.57200003 0.32300001 10
0.212 0.57499999 0.31999999 3
0.85000002 0.102 0.301 18
0.72899997 0.34299999 0.32100001 4
0.72899997 0.38499999 0.31600001 3
0.73299998 0.36500001 0.32499999 17
0.699 0.389 0.30599999 7
0.66799998 0.41100001 0.287 7
0.65499997 0.44100001 0.27700001 15
0.70599997 0.37200001 0.31600001 7
0.68000001 0.40000001 0.301 7
0.66000003 0.42699999 0.287 12
0.63700002 0.45100001 0.27399999 14
0.69199997 0.384 0.31200001 12
0.667 0.41299999 0.29800001 11
0.64999998 0.442 0.287 12
0.61299998 0.456 0.26800001 14
0.67500001 0.39500001 0.30700001 13
0.65499997 0.426 0.296 12
0.62300003 0.44499999 0.27900001 11
0.59899998 0.46799999 0.26699999 14
0.66500002 0.40900001 0.30500001 14
0.63599998 0.43399999 0.29100001 10
0.60299999 0.45199999 0.27500001 11
0.57200003 0.46900001 0.25999999 13
0.64999998 0.41999999 0.301 15
0.61500001 0.44100001 0.285 10
0.58600003 0.461 0.271 11
0.52499998 0.45100001 0.243 12
0.634 0.43099999 0.29699999 14
0.60100001 0.45199999 0.28200001 11
0.56400001 0.465 0.266 12
0.50999999 0.46000001 0.242 12
0.60900003 0.43399999 0.28799999 13
0.57999998 0.458 0.27700001 11
0.528 0.456 0.25299999 11
0.49599999 0.46799999 0.23999999 12
0.602 0.44999999 0.28799999 14
0.56199998 0.46399999 0.27200001 10
0.51800001 0.46900001 0.25299999 11
0.47799999 0.472 0.237 11
0.583 0.45699999 0.28299999 14
0.52600002 0.45500001 0.259 9
0.45300001 0.47 0.23 11
0.56199998 0.46200001 0.27599999 13
0.51599997 0.46799999 0.259 11
0.48100001 0.47799999 0.245 10
0.52499998 0.45100001 0.26199999 12
0.498 0.47299999 0.25400001 10
0.454 0.47299999 0.237 9
0.419 0.47600001 0.22400001 10
0.51599997 0.465 0.26100001 12
0.498 0.46900001 0.257 12
0.46000001 0.47799999 0.244 8
0.42199999 0.48100001 0.23100001 9
0.389 0.48699999 0.22 10
0.48300001 0.47600001 0.25299999 11
0.45500001 0.47 0.243 11
0.41999999 0.479 0.233 8
0.396 0.49700001 0.228 9
0.36899999 0.50700003 0.222 10
0.43799999 0.47400001 0.23800001 10
0.403 0.48199999 0.229 8
0.361 0.498 0.221 9
0.34400001 0.523 0.222 9
0.40599999 0.48100001 0.23 10
0.38299999 0.50300002 0.229 7
0.34099999 0.51899999 0.222 9
0.31900001 0.537 0.222 10
0.384 0.50099999 0.229 10
0.361 0.52200001 0.229 8
0.31 0.523 0.21699999 9
0.28 0.52600002 0.212 9
0.359 0.51599997 0.226 10
0.33399999 0.53399998 0.226 8
0.27700001 0.52100003 0.20999999 8
0.259 0.54400003 0.214 9
0.33000001 0.52499998 0.22 10
0.30000001 0.53299999 0.21799999 8
0.257 0.54100001 0.213 8
0.229 0.54500002 0.211 9
0.30199999 0.53299999 0.215 9
0.271 0.53799999 0.213 7
0.22499999 0.53600001 0.206 8
0.20299999 0.55299997 0.20999999 9
0.27200001 0.53799999 0.20999999 9
0.248 0.55500001 0.214 8
0.2 0.54500002 0.206 8
0.248 0.55299997 0.20900001 9
0.211 0.53899997 0.20299999 8
0.214 0.54299998 0.199 9
0.82999998 0.025 0.183 15
0.829 0.043000001 0.164 15
0.83099997 0.045000002 0.183 15
0.829 0.063000001 0.164 15
0.82700002 0.045000002 0.20100001 15
0.83700001 0.064000003 0.184 13
0.82599998 0.082999997 0.163 15
0.82599998 0.064000003 0.2 15
0.83499998 0.083999999 0.184 13
0.83999997 0.104 0.16599999 15
0.84100002 0.061000001 0.221 17
0.84100002 0.083999999 0.20299999 13
0.84200001 0.104 0.185 13
0.83999997 0.125 0.167 15
0.84399998 0.079999998 0.221 17
0.85000002 0.104 0.205 13
0.83999997 0.124 0.185 13
0.83999997 0.145 0.168 15
0.84399998 0.098999999 0.221 17
0.84200001 0.122 0.20299999 13
0.83700001 0.14399999 0.185 14
0.84399998 0.167 0.169 16
0.84399998 0.117 0.22 17
0.84600002 0.14300001 0.204 13
0.84399998 0.16500001 0.18700001 13
0.84500003 0.189 0.17 16
0.85299999 0.138 0.222 17
0.84500003 0.162 0.204 13
0.847 0.186 0.18799999 13
0.84799999 0.211 0.17200001 16
0.85000002 0.156 0.221 17
0.85000002 0.183 0.205 13
0.847 0.207 0.18799999 13
0.84899998 0.233 0.17299999 16
0.85600001 0.177 0.222 18
0.85500002 0.205 0.207 13
0.85299999 0.23 0.19 13
0.84500003 0.25400001 0.17299999 7
0.852 0.19599999 0.221 18
0.85399997 0.22499999 0.207 13
0.85399997 0.25099999 0.192 14
0.85799998 0.21699999 0.223 18
0.85699999 0.24699999 0.208 13
0.84799999 0.271 0.191 0
0.83399999 0.23100001 0.21699999 14
0.84600002 0.264 0.206 2
0.50400001 0.44100001 0.134 12
0.493 0.43900001 0.13699999 10
0.486 0.46799999 0.13500001 11
0.50300002 0.435 0.14399999 11
0.47999999 0.47 0.139 10
0.45500001 0.48100001 0.133 10
0.509 0.442 0.148 12
0.495 0.46900001 0.146 10
0.43900001 0.472 0.133 9
0.40400001 0.47 0.125 9
0.493 0.46900001 0.147 11
0.46900001 0.486 0.14300001 9
0.39199999 0.463 0.125 8
0.37900001 0.48500001 0.124 9
0.46599999 0.486 0.14300001 10
0.41600001 0.47400001 0.132 8
0.38100001 0.49399999 0.12800001 8
0.36000001 0.509 0.126 10
0.41499999 0.47499999 0.132 9
0.38999999 0.48800001 0.13 8
0.352 0.50400001 0.126 8
0.31999999 0.5 0.121 9
0.38800001 0.486 0.12800001 9
0.368 0.505 0.12899999 9
0.31400001 0.49700001 0.12 8
0.30199999 0.52399999 0.123 10
0.36899999 0.50999999 0.12800001 10
0.336 0.50999999 0.125 8
0.296 0.51999998 0.122 9
0.27200001 0.528 0.121 9
0.331 0.50400001 0.121 9
0.31600001 0.53200001 0.125 8
0.26699999 0.523 0.119 8
0.242 0.52700001 0.119 9
0.31400001 0.52999997 0.121 9
0.28099999 0.52700001 0.12 8
0.237 0.52399999 0.116 8
0.21699999 0.537 0.119 9
0.28 0.52700001 0.116 9
0.25299999 0.53100002 0.117 8
0.211 0.53100002 0.115 8
0.25299999 0.53500003 0.113 9
0.22400001 0.53200001 0.114 8
0.22499999 0.537 0.109 9
0.81099999 -0.028999999 0.074000001 13
0.815 -0.02 0.094999999 14
0.82200003 -0.0099999998 0.075000003 13
0.81599998 -0.014 0.116 16
0.82499999 -0.001 0.096000001 12
0.82200003 0.0080000004 0.074000001 13
0.81900001 0.003 0.115 16
0.82599998 0.016000001 0.094999999 13
0.829 0.028000001 0.075000003 13
0.82200003 0.039000001 0.052999999 14
0.82999998 0.021 0.116 15
0.824 0.035 0.094999999 12
0.82099998 0.046999998 0.074000001 13
0.82099998 0.059 0.052999999 14
0.82700002 0.039000001 0.114 15
0.82300001 0.054000001 0.093999997 12
0.82800001 0.067000002 0.074000001 13
0.82700002 0.079000004 0.054000001 14
0.829 0.057999998 0.114 15
0.83399999 0.072999999 0.094999999 13
0.82800001 0.086000003 0.074000001 13
0.829 0.1 0.054000001 16
0.82999998 0.075999998 0.113 15
0.829 0.092 0.093999997 13
0.824 0.105 0.074000001 12
0.82800001 0.12 0.054000001 15
0.82800001 0.094999999 0.112 15
0.833 0.112 0.093999997 13
0.833 0.126 0.074000001 13
0.82499999 0.14 0.054000001 15
0.82700002 0.113 0.112 15
0.83499998 0.131 0.093999997 13
0.829 0.145 0.074000001 13
0.82700002 0.161 0.055 15
0.83399999 0.132 0.112 15
0.83200002 0.15000001 0.093000002 13
0.83200002 0.16599999 0.074000001 13
0.81300002 0.178 0.054000001 10
0.83200002 0.15099999 0.111 15
0.83099997 0.169 0.093000002 13
0.833 0.186 0.074000001 14
0.83499998 0.171 0.111 15
0.84100002 0.191 0.093999997 13
0.83200002 0.189 0.11 17
0.82800001 0.208 0.092 1
0.83099997 0.208 0.109 18
0.491 0.43000001 0.046 10
0.49599999 0.42699999 0.052999999 9
0.48899999 0.414 0.057999998 9
0.477 0.45899999 0.046999998 11
0.47999999 0.454 0.052999999 9
0.498 0.43099999 0.064000003 10
0.49700001 0.46200001 0.061000001 9
0.43700001 0.463 0.046 10
0.47400001 0.461 0.059 10
0.456 0.47299999 0.052999999 9
0.48199999 0.45699999 0.061999999 11
0.46700001 0.47600001 0.059 8
0.41499999 0.484 0.046999998 10
0.41800001 0.477 0.050999999 9
0.447 0.46399999 0.059 10
0.43200001 0.48300001 0.056000002 8
0.373 0.47799999 0.045000002 9
0.384 0.48199999 0.048999999 8
0.417 0.47499999 0.055 10
0.41100001 0.50400001 0.055 7
0.35100001 0.49700001 0.046 10
0.36899999 0.47400001 0.050000001 8
0.368 0.509 0.050000001 8
0.38999999 0.486 0.052999999 9
0.31600001 0.49599999 0.044 9
0.35299999 0.49900001 0.050000001 9
0.333 0.509 0.048 7
0.361 0.49599999 0.050000001 9
0.28799999 0.50199997 0.044 8
0.315 0.493 0.046999998 8
0.29800001 0.50599998 0.046 7
0.329 0.498 0.046999998 9
0.271 0.52999997 0.046 9
0.28600001 0.49700001 0.045000002 7
0.285 0.54000002 0.048 8
0.29699999 0.49700001 0.043000001 9
0.243 0.53500003 0.046 9
0.27000001 0.523 0.045000002 8
0.257 0.546 0.046999998 8
0.28200001 0.52499998 0.043000001 9
0.22 0.551 0.046999998 9
0.244 0.53200001 0.044 8
0.227 0.54699999 0.046 7
0.255 0.53299999 0.041000001 9
0.22 0.54400003 0.043000001 8
0.20900001 0.57800001 0.046999998 8
0.23 0.542 0.039000001 9
0.2 0.56999999 0.043000001 8
0.20900001 0.56400001 0.037999999 9
0.81300002 0.018999999 0.041999999 16
0.81599998 0.037 0.041000001 16
0.81400001 0.055 0.039999999 16
0.82099998 0.064999998 0.017000001 14
0.81800002 0.072999999 0.039999999 16
0.82300001 0.083999999 0.017000001 14
0.81900001 0.092 0.039000001 17
0.824 0.103 0.017000001 14
0.82499999 0.113 -0.0060000001 14
0.81900001 0.11 0.039000001 17
0.82099998 0.122 0.016000001 14
0.824 0.133 -0.0060000001 14
0.81800002 0.12800001 0.037999999 17
0.82700002 0.142 0.016000001 14
0.81999999 0.147 0.037 17
0.815 0.15899999 0.015 4
0.81999999 0.16599999 0.037 17
0.48300001 0.40700001 -0.017999999 10
0.48100001 0.40400001 -0.0070000002 8
0.484 0.405 0.0020000001 9
0.47400001 0.44 -0.017000001 11
0.47600001 0.43900001 -0.0070000002 9
0.491 0.426 0.0089999996 10
0.48699999 0.447 0.001 9
0.44499999 0.454 -0.016000001 10
0.449 0.45500001 -0.0080000004 9
0.477 0.45199999 0.0080000004 11
0.46599999 0.46900001 0 9
0.42399999 0.47600001 -0.016000001 10
0.43099999 0.47999999 -0.0080000004 9
0.44499999 0.46200001 0.0049999999 10
0.44999999 0.49599999 0 8
0.38600001 0.477 -0.014 10
0.391 0.47799999 -0.0070000002 8
0.41999999 0.47799999 0.0040000002 10
0.405 0.49000001 -0.001 8
0.361 0.49200001 -0.013 10
0.36500001 0.493 -0.0080000004 9
0.38600001 0.48199999 0.0020000001 10
0.377 0.50099999 -0.0020000001 8
0.31900001 0.48199999 -0.012 9
0.32100001 0.47799999 -0.0070000002 8
0.35699999 0.49000001 0 8
0.331 0.48500001 -0.003 7
0.301 0.505 -0.011 9
0.30500001 0.50400001 -0.0070000002 8
0.31900001 0.48199999 -0.001 7
0.31600001 0.51300001 -0.0040000002 8
0.273 0.51099998 -0.0099999998 9
0.278 0.51099998 -0.0070000002 8
0.30199999 0.505 -0.003 9
0.28799999 0.51999998 -0.0049999999 8
0.23999999 0.50700003 -0.0089999996 8
0.248 0.51200002 -0.0070000002 7
0.273 0.509 -0.0049999999 9
0.25400001 0.51300001 -0.0049999999 7
0.21799999 0.52200001 -0.0089999996 8
0.222 0.51899999 -0.0070000002 8
0.245 0.51099998 -0.0060000001 8
0.23199999 0.528 -0.0060000001 7
0.20299999 0.56 -0.0080000004 9
0.208 0.55599999 -0.0080000004 8
0.222 0.52399999 -0.0080000004 9
0.215 0.56 -0.0070000002 7
0.206 0.55500001 -0.0099999998 9
