# .PCD v0.7 - Point Cloud Data file format
VERSION 0.7
FIELDS x y z intensity
SIZE 4 4 4 4
TYPE F F F F
COUNT 1 1 1 1
WIDTH 816
HEIGHT 1
VIEWPOINT 0 0 0 1 0 0 0
POINTS 816
DATA ascii
0.92699999 -0.19400001 0.86000001 10
0.91399997 -0.167 0.778 13
0.79100001 -0.171 0.79799998 12
0.861 -0.16 0.79500002 8
0.96100003 -0.152 0.81400001 1
0.79900002 -0.155 0.80199999 2
0.93000001 -0.15099999 0.85399997 1
0.954 -0.12800001 0.80500001 3
0.90899998 -0.156 0.90799999 2
0.94199997 -0.104 0.792 8
0.93699998 -0.139 0.93099999 7
0.93000001 -0.108 0.84799999 1
0.59299999 -0.050999999 0.49700001 3
0.57999998 -0.054000001 0.52700001 0
0.59299999 -0.037 0.495 4
0.57800001 -0.041000001 0.523 0
0.60500002 -0.024 0.505 4
0.574 -0.028000001 0.51899999 3
0.61000001 -0.0099999998 0.50800002 5
0.56699997 -0.014 0.51200002 7
0.58999997 0.003 0.49200001 7
0.56300002 -0.0020000001 0.50700003 9
0.59600002 0.017000001 0.49599999 4
0.55000001 0.0099999998 0.495 8
0.58600003 0.030999999 0.48800001 6
0.54799998 0.022 0.493 9
0.54900002 0.041000001 0.458 11
0.54299998 0.034000002 0.48899999 10
0.54500002 0.054000001 0.45500001 11
0.53299999 0.046 0.47999999 10
0.54299998 0.067000002 0.45500001 11
0.528 0.077 0.44400001 11
0.53100002 0.048 0.51700002 0
0.53200001 0.07 0.48100001 8
0.51800001 0.1 0.43799999 10
0.51899999 0.092 0.472 7
0.51800001 0.104 0.472 10
0.51300001 0.124 0.43799999 9
0.50599998 0.114 0.463 9
0.505 0.126 0.465 9
0.50599998 0.148 0.43799999 10
0.505 0.138 0.46700001 9
0.48500001 0.16599999 0.426 10
0.48699999 0.15700001 0.456 7
0.48800001 0.18000001 0.43200001 10
0.47999999 0.167 0.45199999 6
0.48100001 0.19 0.43000001 10
0.46399999 0.20900001 0.42300001 10
0.442 0.22400001 0.41299999 9
0.44 0.249 0.421 7
0.43799999 0.26100001 0.42500001 8
0.414 0.25999999 0.40700001 0
0.99800003 -0.148 0.76300001 8
0.93300003 -0.15700001 0.76899999 15
0.95999998 -0.12 0.78299999 3
0.95499998 -0.098999999 0.77499998 1
0.60699999 0.027000001 0.48300001 9
0.56199998 0.037999999 0.447 8
0.56099999 0.050000001 0.44600001 11
0.56 0.061999999 0.44400001 11
0.55699998 0.090999998 0.41800001 1
0.54799998 0.102 0.41100001 7
0.54699999 0.085000001 0.43399999 11
0.55000001 0.115 0.414 8
0.537 0.094999999 0.42699999 10
0.51700002 0.132 0.39199999 9
0.528 0.162 0.382 8
0.51800001 0.115 0.41299999 11
0.50300002 0.192 0.35100001 10
0.523 0.12800001 0.41800001 10
0.51899999 0.15800001 0.39700001 8
0.509 0.182 0.373 8
0.48199999 0.20999999 0.34200001 10
0.509 0.149 0.40900001 10
0.50400001 0.178 0.38999999 8
0.49399999 0.20200001 0.368 8
0.46799999 0.23100001 0.34 10
0.50099999 0.171 0.40599999 10
0.493 0.2 0.38600001 7
0.48300001 0.22400001 0.366 8
0.449 0.24699999 0.33399999 10
0.48699999 0.191 0.398 10
0.477 0.219 0.38 8
0.46200001 0.23999999 0.35699999 8
0.43000001 0.264 0.329 9
0.472 0.20999999 0.391 9
0.45500001 0.234 0.36899999 7
0.447 0.259 0.354 8
0.417 0.28299999 0.329 9
0.45899999 0.229 0.38600001 9
0.44400001 0.25400001 0.36700001 7
0.43000001 0.27599999 0.34999999 8
0.40599999 0.303 0.331 10
0.447 0.249 0.382 9
0.42500001 0.26899999 0.359 7
0.414 0.294 0.347 8
0.384 0.31600001 0.32499999 9
0.41999999 0.259 0.36700001 9
0.40900001 0.28600001 0.35600001 8
0.39199999 0.30500001 0.33899999 7
0.36300001 0.32800001 0.32100001 9
0.40900001 0.27900001 0.36500001 9
0.389 0.29899999 0.34799999 7
0.37799999 0.32300001 0.33899999 7
0.352 0.34799999 0.324 9
0.39700001 0.29800001 0.36300001 8
0.382 0.322 0.35299999 7
0.36300001 0.34099999 0.33899999 7
0.33500001 0.36199999 0.324 9
0.38100001 0.31400001 0.359 9
0.35800001 0.331 0.34299999 7
0.347 0.35600001 0.338 7
0.31200001 0.37099999 0.31900001 8
0.36300001 0.32800001 0.35299999 8
0.354 0.359 0.35299999 7
0.33199999 0.37400001 0.33899999 7
0.29699999 0.38699999 0.32100001 8
0.35299999 0.34999999 0.35600001 8
0.336 0.37200001 0.34900001 7
0.31400001 0.38699999 0.338 7
0.273 0.391 0.31400001 8
0.33899999 0.36899999 0.35600001 9
0.31900001 0.38800001 0.34799999 7
0.292 0.396 0.333 7
0.25099999 0.396 0.31 8
0.31999999 0.382 0.352 8
0.296 0.39500001 0.34099999 6
0.27000001 0.403 0.32699999 6
0.237 0.41600001 0.317 7
0.30000001 0.39399999 0.347 8
0.27599999 0.40599999 0.338 6
0.25099999 0.414 0.32699999 5
0.21699999 0.42399999 0.31600001 7
0.27700001 0.40200001 0.33899999 7
0.255 0.41600001 0.33399999 6
0.236 0.43200001 0.331 6
0.25600001 0.41100001 0.33399999 7
0.244 0.44100001 0.34400001 6
0.213 0.43599999 0.32600001 6
0.245 0.43700001 0.34299999 7
0.215 0.43599999 0.33000001 6
0.20200001 0.465 0.34099999 6
0.21699999 0.435 0.33000001 7
0.204 0.465 0.34299999 5
0.20100001 0.45500001 0.33500001 7
0.54699999 -0.086000003 0.26300001 10
0.54299998 -0.075000003 0.278 9
0.546 -0.059999999 0.26100001 9
0.54699999 -0.079000004 0.30000001 8
0.54699999 -0.067000002 0.29800001 9
0.56699997 -0.052000001 0.28799999 8
0.551 -0.034000002 0.26100001 9
0.56300002 -0.0080000004 0.266 9
0.38999999 0.38800001 0.259 9
0.40000001 0.37900001 0.26699999 8
0.40599999 0.36500001 0.273 8
0.35499999 0.38699999 0.248 9
0.426 0.36000001 0.285 9
0.37099999 0.38499999 0.259 9
0.37900001 0.37400001 0.264 8
0.29899999 0.35800001 0.221 7
0.39899999 0.37 0.27599999 8
0.31 0.35299999 0.227 6
0.35600001 0.384 0.259 8
0.28799999 0.37900001 0.226 7
0.375 0.38100001 0.26800001 9
0.29300001 0.36700001 0.227 6
0.30399999 0.361 0.23199999 6
0.27200001 0.39399999 0.227 7
0.33000001 0.36899999 0.24699999 7
0.28 0.38600001 0.23 6
0.287 0.373 0.23 6
0.25 0.40099999 0.22400001 7
0.303 0.37200001 0.237 7
0.26300001 0.39899999 0.23 7
0.27500001 0.39500001 0.234 7
0.227 0.40400001 0.22 7
0.292 0.39300001 0.23999999 7
0.235 0.39399999 0.22 6
0.25400001 0.403 0.23100001 6
0.204 0.40599999 0.21600001 7
0.27200001 0.405 0.237 8
0.215 0.40200001 0.21799999 6
0.227 0.40000001 0.222 6
0.24699999 0.40700001 0.229 7
0.206 0.405 0.21799999 6
0.223 0.41 0.223 7
0.2 0.41299999 0.21799999 6
0.51200002 -0.161 0.16599999 8
0.51700002 -0.149 0.16599999 8
0.51999998 -0.133 0.18000001 8
0.52399999 -0.124 0.16599999 8
0.51800001 -0.12899999 0.19400001 8
0.52600002 -0.109 0.18000001 8
0.52899998 -0.098999999 0.16500001 8
0.53299999 -0.121 0.214 9
0.53299999 -0.108 0.197 7
0.53299999 -0.085000001 0.18000001 8
0.53500003 -0.074000001 0.16599999 8
0.54000002 -0.097999997 0.213 9
0.53799999 -0.083999999 0.19599999 7
0.53399998 -0.059999999 0.178 8
0.53899997 -0.048 0.16500001 8
0.54400003 -0.075000003 0.212 9
0.54400003 -0.061000001 0.19599999 7
0.537 -0.035 0.178 8
0.54000002 -0.022 0.16500001 8
0.55199999 -0.052000001 0.213 9
0.55000001 -0.035999998 0.197 8
0.54500002 -0.0099999998 0.18000001 8
0.546 0.003 0.16599999 8
0.55199999 -0.028000001 0.211 9
0.54500002 -0.012 0.193 7
0.55500001 0.014 0.182 8
0.55400002 0.028999999 0.169 9
0.55699998 -0.0040000002 0.211 9
0.56400001 0.012 0.199 8
0.55400002 0.039999999 0.182 8
0.56099999 0.057 0.171 9
0.56699997 0.02 0.213 9
0.565 0.037999999 0.199 8
0.56699997 0.068000004 0.186 8
0.565 0.085000001 0.17299999 7
0.56999999 0.044 0.213 9
0.56599998 0.064000003 0.199 8
0.56900001 0.068999998 0.212 9
0.574 0.090999998 0.20200001 8
0.287 0.34799999 0.138 6
0.287 0.34900001 0.141 5
0.28299999 0.377 0.145 7
0.28600001 0.34900001 0.142 5
0.28299999 0.38 0.147 6
0.27000001 0.398 0.148 7
0.289 0.352 0.14300001 6
0.28600001 0.384 0.15000001 6
0.26800001 0.396 0.148 6
0.25299999 0.412 0.149 7
0.27700001 0.37 0.14399999 7
0.26899999 0.39899999 0.15000001 6
0.25 0.40900001 0.148 6
0.22499999 0.40700001 0.14300001 6
0.26499999 0.391 0.146 7
0.25299999 0.41499999 0.15000001 6
0.226 0.41100001 0.145 6
0.20299999 0.412 0.142 6
0.24699999 0.403 0.14399999 7
0.228 0.41600001 0.146 6
0.205 0.41800001 0.14300001 5
0.22400001 0.40599999 0.14 7
0.204 0.41600001 0.141 5
0.20100001 0.41 0.13600001 6
0.50599998 -0.198 0.117 7
0.5 -0.193 0.1 7
0.49599999 -0.186 0.12800001 8
0.50700003 -0.185 0.116 7
0.49700001 -0.175 0.083999999 8
0.51099998 -0.17900001 0.131 8
0.498 -0.16500001 0.097999997 7
0.50999999 -0.161 0.114 7
0.505 -0.15000001 0.082999997 8
0.51499999 -0.156 0.12899999 8
0.50300002 -0.142 0.097000003 7
0.50599998 -0.13500001 0.111 7
0.50800002 -0.125 0.082000002 8
0.51899999 -0.133 0.127 8
0.509 -0.118 0.096000001 7
0.50999999 -0.112 0.11 7
0.514 -0.101 0.082000002 8
0.52399999 -0.11 0.126 8
0.51599997 -0.094999999 0.096000001 7
0.52399999 -0.090000004 0.111 7
0.51700002 -0.075999998 0.082000002 8
0.52899998 -0.086999997 0.125 8
0.51800001 -0.07 0.094999999 7
0.51999998 -0.066 0.109 7
0.52200001 -0.050999999 0.082000002 8
0.537 -0.064999998 0.125 8
0.523 -0.046 0.094999999 7
0.53100002 -0.043000001 0.11 7
0.52600002 -0.026000001 0.082000002 8
0.54000002 -0.041000001 0.124 8
0.53299999 -0.022 0.096000001 7
0.53799999 -0.018999999 0.11 7
0.53899997 0 0.083999999 8
0.546 -0.017999999 0.124 8
0.53899997 0.0020000001 0.097000003 7
0.542 0.0040000002 0.11 8
0.542 0.025 0.083999999 8
0.54699999 0.0049999999 0.123 8
0.54100001 0.027000001 0.097000003 7
0.54400003 0.028999999 0.109 7
0.54400003 0.028000001 0.121 8
0.54299998 0.052000001 0.12 8
0.278 0.336 0.07 6
0.28299999 0.33199999 0.071999997 5
0.27700001 0.36899999 0.074000001 6
0.28 0.33399999 0.074000001 5
0.28200001 0.36399999 0.075999998 4
0.26199999 0.38600001 0.075999998 6
0.28600001 0.34299999 0.075000003 6
0.28600001 0.37400001 0.079000004 5
0.27500001 0.39199999 0.079000004 5
0.243 0.396 0.075999998 6
0.28099999 0.37099999 0.077 6
0.27599999 0.398 0.079999998 5
0.25400001 0.40000001 0.078000002 5
0.227 0.412 0.077 6
0.26899999 0.38999999 0.077 6
0.252 0.40200001 0.078000002 5
0.234 0.40900001 0.077 5
0.206 0.41999999 0.077 6
0.25 0.40200001 0.075000003 6
0.23199999 0.41 0.075999998 5
0.21600001 0.42199999 0.077 5
0.23100001 0.412 0.072999999 6
0.213 0.42199999 0.075999998 5
0.204 0.44999999 0.079999998 6
0.212 0.42399999 0.071999997 6
0.205 0.456 0.079000004 6
0.204 0.458 0.075000003 7
0.50199997 -0.176 0.066 8
0.50300002 -0.164 0.064999998 8
0.49200001 -0.146 0.048 6
0.50800002 -0.141 0.064000003 8
0.505 -0.13699999 0.048 7
0.50400001 -0.116 0.061999999 8
0.51099998 -0.114 0.048 7
0.50800002 -0.112 0.032000002 6
0.51099998 -0.094999999 0.061999999 8
0.51499999 -0.090999998 0.046999998 6
0.51300001 -0.088 0.032000002 6
0.50999999 -0.071999997 0.017000001 7
0.523 -0.072999999 0.061999999 8
0.51899999 -0.068000004 0.046 7
0.51700002 -0.064000003 0.030999999 6
0.51300001 -0.046999998 0.016000001 8
0.52899998 -0.050999999 0.061000001 8
0.528 -0.045000002 0.046 7
0.52899998 -0.039999999 0.032000002 7
0.51700002 -0.022 0.016000001 8
0.537 -0.028000001 0.061000001 8
0.53600001 -0.021 0.046 7
0.53299999 -0.016000001 0.030999999 7
0.52700001 -0.0040000002 0.059 8
0.54000002 0.0020000001 0.046 7
0.278 0.32800001 0.017000001 5
0.273 0.33199999 0.021 5
0.26499999 0.34400001 0.017999999 5
0.27500001 0.32699999 0.023 5
0.26800001 0.35800001 0.022 5
0.264 0.37900001 0.02 6
0.27500001 0.33500001 0.025 5
0.273 0.35699999 0.024 4
0.255 0.37599999 0.022 5
0.248 0.39399999 0.02 6
0.27200001 0.36399999 0.024 5
0.26499999 0.382 0.024 5
0.23800001 0.38999999 0.022 5
0.228 0.40400001 0.021 6
0.26100001 0.384 0.024 6
0.248 0.39500001 0.023 5
0.22 0.40099999 0.022 5
0.21699999 0.42899999 0.022 6
0.244 0.39700001 0.022 6
0.228 0.40400001 0.022 5
0.208 0.42500001 0.022 6
0.223 0.403 0.02 6
0.21799999 0.43099999 0.023 5
0.213 0.43000001 0.02 6
0.509 -0.082000002 0.018999999 7
0.514 -0.059 0.018999999 8
0.51700002 -0.057 0.0020000001 7
0.51599997 -0.037 0.017999999 8
0.52100003 -0.033 0.0020000001 7
0.51800001 -0.030999999 -0.014 6
0.51899999 -0.014 0.017000001 8
0.27900001 0.322 -0.02 5
0.271 0.32600001 -0.014 5
0.26300001 0.33500001 -0.018999999 5
0.271 0.32300001 -0.0080000004 4
0.27000001 0.317 -0.0040000002 5
0.25600001 0.338 -0.014 5
0.25600001 0.36000001 -0.02 5
0.257 0.336 -0.0089999996 4
0.252 0.32600001 -0.0049999999 5
0.25400001 0.37099999 -0.015 5
0.249 0.38800001 -0.02 6
0.25299999 0.366 -0.0099999998 5
0.25400001 0.36199999 -0.0070000002 6
0.23800001 0.38499999 -0.015 5
0.25 0.43200001 -0.021 7
0.23800001 0.38100001 -0.011 5
0.23899999 0.375 -0.0080000004 6
0.234 0.42199999 -0.016000001 6
0.223 0.43200001 -0.018999999 6
0.23899999 0.42300001 -0.013 6
0.23999999 0.41800001 -0.011 7
0.211 0.42699999 -0.016000001 6
0.2 0.43700001 -0.018999999 6
0.215 0.42699999 -0.013 6
0.223 0.43200001 -0.012 7
0.498 -0.075999998 0.013 7
0.51099998 -0.055 0.014 7
0.51099998 -0.054000001 0 6
0.51300001 -0.033 0.015 7
0.51999998 -0.030999999 0 7
0.27399999 0.317 -0.023 5
0.26199999 0.317 -0.0089999996 4
0.25999999 0.33199999 -0.022 5
0.264 0.317 0.0020000001 4
0.26899999 0.31999999 0.013 5
0.25600001 0.34 -0.0089999996 5
0.259 0.36500001 -0.023 5
0.257 0.33899999 0.0020000001 4
0.26300001 0.34299999 0.013 5
0.25400001 0.37200001 -0.0099999998 5
0.245 0.382 -0.023 6
0.25600001 0.37200001 0.0020000001 5
0.25600001 0.36700001 0.013 6
0.233 0.37900001 -0.0089999996 5
0.245 0.426 -0.024 6
0.235 0.37799999 0.001 5
0.23999999 0.37900001 0.012 6
0.234 0.42300001 -0.0099999998 6
0.221 0.43099999 -0.023 6
0.235 0.41999999 0.001 6
0.222 0.389 0.012 6
0.20900001 0.42399999 -0.0089999996 6
0.213 0.426 0.001 6
0.219 0.42699999 0.012 7
0.50400001 -0.132 0.050000001 8
0.50199997 -0.13600001 0.037999999 6
0.5 -0.123 0.037999999 7
0.509 -0.11 0.050999999 7
0.50400001 -0.1 0.037999999 7
0.50999999 -0.105 0.027000001 7
0.509 -0.086999997 0.050999999 8
0.50599998 -0.077 0.039000001 7
0.509 -0.079999998 0.027000001 6
0.51300001 -0.064000003 0.052000001 8
0.50700003 -0.068999998 0.014 7
0.514 -0.055 0.039999999 7
0.51800001 -0.057 0.027000001 7
0.51899999 -0.041999999 0.054000001 8
0.50800002 -0.045000002 0.014 7
0.51599997 -0.030999999 0.039999999 7
0.52700001 -0.033 0.028000001 7
0.51999998 -0.018999999 0.055 8
0.51300001 -0.02 0.014 8
0.51899999 -0.0080000004 0.041000001 7
0.53100002 -0.0089999996 0.028000001 7
0.52999997 0.0020000001 0.057 8
0.26499999 0.317 0.014 5
0.27399999 0.32499999 0.027000001 5
0.27399999 0.324 0.039000001 5
0.259 0.34200001 0.015 5
0.285 0.333 0.052999999 5
0.26699999 0.34799999 0.028000001 4
0.26800001 0.34799999 0.041000001 4
0.25600001 0.373 0.017000001 6
0.278 0.35600001 0.054000001 5
0.25999999 0.375 0.029999999 5
0.26300001 0.37400001 0.043000001 5
0.23800001 0.38499999 0.017000001 6
0.27200001 0.38299999 0.056000002 6
0.241 0.384 0.029999999 5
0.245 0.38600001 0.043000001 5
0.22499999 0.40599999 0.018999999 6
0.255 0.39500001 0.056000002 6
0.222 0.39399999 0.029999999 5
0.22400001 0.391 0.041999999 5
0.20999999 0.42500001 0.02 6
0.235 0.403 0.055 6
0.212 0.42199999 0.032000002 6
0.21799999 0.42399999 0.045000002 6
0.21699999 0.41299999 0.055 6
0.205 0.43799999 0.056000002 6
0.49200001 -0.19599999 0.096000001 7
0.50300002 -0.177 0.107 8
0.484 -0.2 0.079000004 8
0.495 -0.171 0.096000001 7
0.498 -0.182 0.089000002 7
0.49900001 -0.192 0.079999998 8
0.51300001 -0.156 0.109 8
0.50099999 -0.149 0.097000003 7
0.50999999 -0.161 0.090000004 7
0.505 -0.168 0.079999998 8
0.51899999 -0.133 0.11 8
0.50700003 -0.126 0.097999997 7
0.51700002 -0.13699999 0.090000004 7
0.50800002 -0.142 0.079000004 8
0.52200001 -0.11 0.111 8
0.51300001 -0.103 0.098999999 7
0.51800001 -0.112 0.090000004 7
0.509 -0.116 0.078000002 7
0.528 -0.086999997 0.113 8
0.51800001 -0.079999998 0.1 7
0.52600002 -0.088 0.090999998 7
0.51300001 -0.092 0.078000002 7
0.53200001 -0.064000003 0.114 8
0.51700002 -0.056000002 0.1 7
0.52999997 -0.064000003 0.090999998 7
0.523 -0.068000004 0.078000002 7
0.53500003 -0.041000001 0.115 8
0.53200001 -0.034000002 0.103 7
0.53299999 -0.039000001 0.090999998 7
0.52999997 -0.043000001 0.079000004 8
0.54000002 -0.017999999 0.118 8
0.53600001 -0.0099999998 0.104 7
0.542 -0.015 0.093000002 7
0.53799999 -0.017999999 0.079999998 8
0.546 0.0040000002 0.12 8
0.53799999 0.013 0.105 7
0.542 0.0099999998 0.093000002 7
0.53899997 0.0070000002 0.079999998 8
0.551 0.028000001 0.122 8
0.54400003 0.037999999 0.107 7
0.27700001 0.33399999 0.068999998 5
0.28400001 0.32699999 0.093000002 5
0.289 0.34799999 0.085000001 5
0.29100001 0.33399999 0.107 6
0.27599999 0.368 0.074000001 6
0.27700001 0.34999999 0.096000001 5
0.287 0.38100001 0.090000004 5
0.28 0.35100001 0.108 5
0.264 0.389 0.075999998 6
0.26899999 0.373 0.098999999 5
0.27200001 0.39899999 0.090999998 6
0.27500001 0.37799999 0.112 6
0.242 0.396 0.075999998 6
0.252 0.38499999 0.098999999 5
0.249 0.403 0.090000004 5
0.25999999 0.39199999 0.113 7
0.222 0.40700001 0.077 6
0.236 0.39899999 0.1 5
0.229 0.41299999 0.090000004 5
0.242 0.40400001 0.113 7
0.211 0.435 0.081 6
0.21699999 0.40799999 0.1 6
0.208 0.41999999 0.090000004 5
0.22 0.405 0.111 6
0.51700002 -0.15800001 0.189 7
0.51999998 -0.147 0.189 8
0.51099998 -0.15800001 0.177 7
0.51300001 -0.146 0.177 8
0.51300001 -0.16 0.169 7
0.50999999 -0.17200001 0.15899999 8
0.52100003 -0.123 0.19 8
0.509 -0.146 0.16599999 8
0.509 -0.15800001 0.15700001 8
0.51800001 -0.123 0.178 8
0.52999997 -0.101 0.193 9
0.51700002 -0.123 0.167 8
0.51599997 -0.134 0.15700001 8
0.523 -0.1 0.17900001 8
0.53299999 -0.078000002 0.19400001 9
0.52399999 -0.098999999 0.168 8
0.523 -0.11 0.15700001 8
0.52700001 -0.075999998 0.18000001 8
0.53799999 -0.055 0.19599999 9
0.528 -0.075000003 0.169 8
0.52999997 -0.085000001 0.15800001 8
0.53500003 -0.052999999 0.182 8
0.54100001 -0.032000002 0.197 9
0.53200001 -0.050999999 0.169 8
0.53500003 -0.059999999 0.15800001 8
0.537 -0.028999999 0.183 8
0.54299998 -0.0089999996 0.199 9
0.53899997 -0.027000001 0.17200001 8
0.537 -0.035 0.15800001 8
0.54000002 -0.0060000001 0.185 8
0.55299997 0.014 0.204 9
0.54400003 -0.0020000001 0.17399999 8
0.542 -0.0089999996 0.16 8
0.54299998 0.017999999 0.18700001 8
0.55800003 0.037999999 0.208 9
0.55400002 0.023 0.177 8
0.54699999 0.016000001 0.161 8
0.55299997 0.043000001 0.191 8
0.56400001 0.063000001 0.212 9
0.55400002 0.048 0.178 8
0.55000001 0.041999999 0.163 8
0.55800003 0.068000004 0.19499999 8
0.56599998 0.075999998 0.184 8
0.55800003 0.07 0.16599999 9
0.28999999 0.34299999 0.139 6
0.30199999 0.34799999 0.168 6
0.29499999 0.352 0.155 5
0.30000001 0.34799999 0.18099999 7
0.28099999 0.366 0.14399999 7
0.28400001 0.359 0.168 6
0.28200001 0.37 0.15800001 5
0.28299999 0.359 0.18000001 7
0.26699999 0.38499999 0.147 6
0.278 0.38499999 0.17399999 6
0.27700001 0.40000001 0.16599999 6
0.28 0.38800001 0.18799999 7
0.25 0.40000001 0.149 7
0.264 0.403 0.177 6
0.257 0.412 0.16599999 6
0.266 0.403 0.19 7
0.22499999 0.40200001 0.146 6
0.241 0.40599999 0.17399999 6
0.226 0.403 0.15800001 5
0.244 0.40799999 0.18700001 7
0.204 0.41 0.146 6
0.215 0.40099999 0.168 6
0.20900001 0.417 0.16 6
0.21799999 0.40200001 0.18000001 6
0.54400003 -0.082999997 0.28400001 8
0.53600001 -0.085000001 0.26499999 8
0.53899997 -0.098999999 0.252 9
0.54900002 -0.059 0.28600001 9
0.54400003 -0.061000001 0.26800001 8
0.54299998 -0.074000001 0.252 9
0.55000001 -0.035999998 0.27000001 9
0.54799998 -0.048 0.25299999 9
0.551 -0.023 0.25400001 10
0.55800003 0.003 0.257 8
0.46799999 0.27599999 0.31299999 9
0.44600001 0.28799999 0.30700001 9
0.42300001 0.30000001 0.30000001 9
0.426 0.317 0.28799999 7
0.41600001 0.322 0.30500001 9
0.41100001 0.336 0.28799999 8
0.39399999 0.33199999 0.29899999 9
0.414 0.35699999 0.27900001 8
0.38600001 0.345 0.28200001 8
0.417 0.38299999 0.27000001 8
0.38600001 0.354 0.30399999 9
0.38299999 0.36199999 0.26899999 7
0.40799999 0.39199999 0.27000001 9
0.37099999 0.36199999 0.28200001 8
0.35800001 0.35699999 0.29300001 9
0.361 0.37400001 0.266 8
0.36700001 0.389 0.257 9
0.34299999 0.36500001 0.27399999 7
0.338 0.36700001 0.28999999 9
0.30899999 0.352 0.23999999 6
0.308 0.359 0.228 7
0.308 0.35800001 0.25799999 6
0.30700001 0.36300001 0.27599999 7
0.292 0.36500001 0.241 6
0.29100001 0.375 0.23 6
0.29499999 0.375 0.26100001 7
0.296 0.38100001 0.28 8
0.27900001 0.384 0.245 7
0.27599999 0.39199999 0.233 7
0.27700001 0.38699999 0.26100001 7
0.27599999 0.389 0.27599999 8
0.26199999 0.39700001 0.24600001 7
0.25600001 0.405 0.234 7
0.25799999 0.396 0.259 7
0.257 0.396 0.273 7
0.234 0.39399999 0.23800001 6
0.229 0.40400001 0.228 7
0.236 0.39899999 0.255 6
0.236 0.39899999 0.26800001 7
0.215 0.40099999 0.237 6
0.208 0.41 0.226 7
0.212 0.39899999 0.248 6
0.21699999 0.40599999 0.266 7
0.2 0.41499999 0.266 7
0.991 -0.149 0.773 8
0.546 0.068000004 0.435 11
0.54299998 0.079000004 0.435 11
0.53600001 0.089000002 0.43099999 10
0.51200002 0.108 0.41600001 11
0.509 0.12899999 0.419 10
0.537 0.124 0.40900001 8
0.49599999 0.148 0.41299999 10
0.51800001 0.14399999 0.40000001 8
0.47999999 0.16500001 0.40599999 9
0.505 0.164 0.39500001 8
0.505 0.167 0.36899999 9
0.472 0.185 0.40599999 10
0.495 0.185 0.39399999 8
0.51999998 0.17900001 0.35600001 9
0.48199999 0.184 0.359 8
0.51599997 0.191 0.35600001 9
0.461 0.20299999 0.40400001 9
0.47799999 0.20299999 0.38800001 8
0.477 0.208 0.36300001 9
0.495 0.20999999 0.34900001 9
0.456 0.22400001 0.40799999 9
0.461 0.219 0.382 7
0.454 0.222 0.35299999 8
0.47400001 0.228 0.34200001 9
0.44100001 0.23999999 0.40400001 9
0.45199999 0.23999999 0.38299999 8
0.44299999 0.243 0.354 8
0.45500001 0.24699999 0.338 9
0.43399999 0.259 0.40599999 8
0.43000001 0.25299999 0.375 7
0.42399999 0.25799999 0.34799999 8
0.44299999 0.26800001 0.338 8
0.41800001 0.27399999 0.40200001 6
0.42199999 0.27399999 0.37799999 7
0.40900001 0.27500001 0.34599999 8
0.41600001 0.27900001 0.329 9
0.391 0.27900001 0.361 8
0.38999999 0.289 0.34200001 7
0.40200001 0.29800001 0.329 9
0.38 0.296 0.36300001 8
0.37799999 0.308 0.34400001 8
0.38699999 0.317 0.33000001 8
0.36500001 0.31099999 0.361 8
0.36300001 0.324 0.34400001 8
0.36700001 0.331 0.32800001 9
0.35299999 0.329 0.36399999 7
0.34599999 0.33899999 0.34299999 7
0.34900001 0.34599999 0.32699999 8
0.347 0.352 0.373 7
0.33500001 0.36000001 0.34900001 8
0.333 0.36300001 0.329 8
0.331 0.36700001 0.373 6
0.31799999 0.37400001 0.34900001 7
0.31299999 0.37599999 0.32699999 8
0.31099999 0.39399999 0.37900001 7
0.30500001 0.39399999 0.35499999 6
0.29499999 0.391 0.329 8
0.28999999 0.40200001 0.375 7
0.28400001 0.40400001 0.35299999 6
0.271 0.398 0.32499999 7
0.271 0.412 0.373 6
0.26300001 0.41299999 0.35100001 5
0.25099999 0.40799999 0.32499999 7
0.27200001 0.456 0.40099999 3
0.24699999 0.43099999 0.35600001 4
0.23999999 0.43599999 0.33899999 7
0.221 0.42899999 0.347 4
0.211 0.43099999 0.32800001 7
0.80500001 -0.184 0.84600002 9
0.77499998 -0.16 0.81300002 7
0.86799997 -0.16 0.90799999 3
0.917 -0.149 0.958 9
0.82099998 -0.16599999 0.79699999 10
0.91500002 -0.12899999 0.95499998 6
0.85000002 -0.153 0.82300001 2
0.97100002 -0.153 0.93800002 7
0.86900002 -0.16599999 0.78399998 11
0.98000002 -0.133 0.94400001 8
0.89399999 -0.15000001 0.80199999 2
0.93699998 -0.16 0.78100002 10
0.92400002 -0.112 0.82499999 7
0.59299999 -0.059 0.528 1
0.94800001 -0.117 0.78600001 8
0.58700001 -0.045000002 0.52200001 4
0.61900002 -0.061999999 0.51099998 0
0.57200003 -0.030999999 0.509 9
0.59500003 -0.046 0.49000001 3
0.565 -0.017999999 0.50199997 9
0.61299998 -0.033 0.50400001 0
0.55199999 0.0080000004 0.52999997 1
0.56999999 -0.0049999999 0.50599998 5
0.60299999 -0.018999999 0.49599999 2
0.53500003 0.02 0.51499999 1
0.57200003 0.0070000002 0.50800002 4
0.60000002 -0.0049999999 0.493 4
0.53299999 0.030999999 0.514 2
0.55500001 0.018999999 0.49399999 5
0.60000002 0.0080000004 0.49399999 6
0.52399999 0.041999999 0.50700003 1
0.537 0.029999999 0.479 5
0.59100002 0.022 0.486 9
0.52499998 0.054000001 0.509 3
0.53600001 0.041999999 0.47799999 8
0.55199999 0.033 0.45500001 11
0.52100003 0.064000003 0.50700003 1
0.53299999 0.054000001 0.477 8
0.551 0.046 0.45500001 11
0.514 0.075000003 0.50199997 0
0.53299999 0.066 0.47799999 8
0.546 0.057999998 0.45199999 11
0.505 0.085000001 0.495 0
0.528 0.078000002 0.47600001 8
0.54100001 0.071000002 0.449 11
0.52100003 0.089000002 0.47099999 8
0.53600001 0.082999997 0.44600001 11
0.49200001 0.105 0.48699999 0
0.51599997 0.092 0.43200001 10
0.51200002 0.111 0.46799999 7
0.523 0.106 0.44 10
0.50599998 0.134 0.46700001 9
0.50700003 0.127 0.43099999 10
0.49000001 0.148 0.42300001 11
0.477 0.168 0.41800001 10
0.47 0.191 0.421 9
0.45199999 0.20900001 0.41299999 10
0.44499999 0.219 0.412 9
0.435 0.23999999 0.414 8
0.42300001 0.25999999 0.414 3
0.74400002 -0.167 0.79699999 11
0.78299999 -0.15700001 0.83399999 1
0.83999997 -0.183 0.824 13
0.889 -0.15800001 0.94300002 6
0.82099998 -0.15899999 0.80000001 7
0.93599999 -0.145 0.98900002 8
0.91500002 -0.155 0.889 2
0.90899998 -0.121 0.958 0
0.97799999 -0.14300001 0.94499999 11
0.551 0.0080000004 0.52600002 3
0.537 0.02 0.51300001 3
0.53299999 0.032000002 0.50999999 4
0.52499998 0.044 0.50300002 4
0.51700002 0.056000002 0.49700001 3
0.52399999 0.068999998 0.505 3
0.51300001 0.079000004 0.49599999 3
0.5 0.089000002 0.48500001 1
0.50300002 0.102 0.491 1
0.49599999 0.112 0.48699999 0
0.50099999 0.126 0.49399999 0
0.82999998 -0.189 0.84100002 13
0.79400003 -0.162 0.80000001 8
0.87900001 -0.15800001 0.88200003 2
0.935 -0.146 0.93300003 11
