# .PCD v0.7 - Point Cloud Data file format
VERSION 0.7
FIELDS x y z intensity
SIZE 4 4 4 4
TYPE F F F F
COUNT 1 1 1 1
WIDTH 172
HEIGHT 1
VIEWPOINT 0 0 0 1 0 0 0
POINTS 172
DATA ascii
0.40099999 0.33399999 0.377 1
0.43900001 0.336 0.296 10
0.458 0.333 0.31600001 9
0.44400001 0.33899999 0.31099999 8
0.41600001 0.35100001 0.292 9
0.419 0.352 0.30399999 8
0.38800001 0.359 0.28400001 9
0.426 0.338 0.31299999 8
0.38999999 0.359 0.294 8
0.36700001 0.373 0.28099999 9
0.44800001 0.34900001 0.33500001 9
0.41800001 0.36399999 0.317 7
0.426 0.347 0.32300001 10
0.368 0.37099999 0.289 8
0.34900001 0.38800001 0.28099999 9
0.38100001 0.36399999 0.30000001 8
0.40000001 0.359 0.31299999 9
0.34599999 0.38299999 0.28600001 8
0.32300001 0.39399999 0.27500001 8
0.36000001 0.37599999 0.29499999 8
0.37599999 0.36899999 0.30500001 9
0.324 0.39300001 0.28099999 8
0.30199999 0.405 0.273 8
0.338 0.38699999 0.28999999 8
0.354 0.38100001 0.29899999 9
0.30399999 0.405 0.27900001 8
0.28299999 0.417 0.273 8
0.31600001 0.39700001 0.285 8
0.333 0.39300001 0.294 9
0.28400001 0.41600001 0.27700001 8
0.296 0.41 0.28299999 8
0.31 0.403 0.287 9
0.273 0.417 0.27700001 7
0.28600001 0.41100001 0.28099999 8
0.46599999 0.31400001 0.204 9
0.46599999 0.317 0.213 8
0.44299999 0.33000001 0.2 9
0.43700001 0.32699999 0.206 8
0.41800001 0.34299999 0.19599999 8
0.45100001 0.32300001 0.21600001 8
0.41600001 0.34299999 0.20299999 8
0.39399999 0.35499999 0.193 8
0.46399999 0.33000001 0.227 9
0.43599999 0.34400001 0.215 8
0.38999999 0.35299999 0.197 7
0.375 0.37099999 0.192 8
0.43799999 0.34299999 0.22 9
0.412 0.35600001 0.20999999 7
0.37200001 0.36899999 0.19599999 7
0.35299999 0.384 0.19 8
0.41 0.352 0.211 8
0.384 0.36399999 0.20299999 7
0.34900001 0.38 0.192 7
0.33000001 0.39399999 0.18799999 8
0.38699999 0.36399999 0.206 8
0.36399999 0.37900001 0.2 7
0.32800001 0.39199999 0.19 7
0.30700001 0.403 0.185 7
0.36700001 0.37799999 0.20200001 8
0.34299999 0.391 0.197 7
0.30399999 0.40000001 0.18700001 7
0.34099999 0.38499999 0.19599999 8
0.31999999 0.40099999 0.193 7
0.31999999 0.39700001 0.192 8
0.41100001 0.34200001 0.112 8
0.465 0.31799999 0.134 9
0.44100001 0.329 0.126 7
0.421 0.33899999 0.119 7
0.384 0.35100001 0.109 8
0.44100001 0.33199999 0.13 8
0.41999999 0.34400001 0.124 7
0.40200001 0.35699999 0.118 7
0.36000001 0.361 0.107 8
0.419 0.345 0.126 8
0.39899999 0.35800001 0.121 7
0.37900001 0.36899999 0.115 7
0.34200001 0.377 0.108 8
0.39500001 0.35699999 0.122 8
0.37599999 0.37099999 0.118 7
0.35699999 0.38100001 0.113 7
0.36899999 0.36500001 0.117 8
0.35299999 0.38100001 0.115 7
0.329 0.38600001 0.11 5
0.345 0.37400001 0.113 8
0.37799999 0.359 0.1 8
0.35499999 0.36899999 0.097999997 8
0.347 0.37799999 0.083999999 6
0.333 0.37799999 0.097000003 6
0.486 0.303 0.155 8
0.47400001 0.30500001 0.169 8
0.46200001 0.31099999 0.13600001 9
0.47799999 0.31600001 0.18799999 9
0.46200001 0.31900001 0.153 8
0.44999999 0.31900001 0.16599999 8
0.43799999 0.32600001 0.133 8
0.45300001 0.32800001 0.184 9
0.43399999 0.33000001 0.149 8
0.428 0.333 0.163 7
0.41100001 0.338 0.131 8
0.42699999 0.338 0.18000001 8
0.40900001 0.34299999 0.146 7
0.40400001 0.34400001 0.16 7
0.391 0.354 0.13 8
0.405 0.34999999 0.177 8
0.38800001 0.35699999 0.145 7
0.38299999 0.35699999 0.15899999 7
0.36399999 0.36300001 0.127 8
0.38600001 0.36300001 0.176 8
0.36700001 0.37 0.14399999 7
0.36399999 0.37099999 0.15800001 7
0.338 0.37099999 0.125 8
0.366 0.37599999 0.17399999 8
0.33899999 0.375 0.14 7
0.338 0.377 0.154 7
0.34299999 0.38499999 0.171 8
0.315 0.38299999 0.138 5
0.317 0.38800001 0.153 7
0.31999999 0.391 0.168 8
0.46399999 0.31999999 0.229 9
0.45500001 0.32600001 0.245 8
0.45100001 0.33199999 0.28200001 9
0.456 0.34 0.26699999 8
0.43599999 0.33199999 0.223 9
0.43200001 0.34099999 0.241 8
0.426 0.34200001 0.27500001 9
0.43000001 0.35100001 0.26100001 7
0.40900001 0.34400001 0.21799999 9
0.405 0.35100001 0.235 8
0.40400001 0.35299999 0.271 9
0.403 0.36000001 0.255 7
0.384 0.35499999 0.214 8
0.38 0.361 0.23100001 8
0.38299999 0.36500001 0.26699999 9
0.37799999 0.36899999 0.249 7
0.36500001 0.37200001 0.214 8
0.36199999 0.37799999 0.23100001 8
0.361 0.37400001 0.26199999 9
0.35499999 0.37799999 0.24600001 7
0.33899999 0.38100001 0.211 8
0.33500001 0.38299999 0.22499999 7
0.33700001 0.38100001 0.257 8
0.336 0.391 0.244 7
0.31799999 0.39300001 0.20999999 8
0.31400001 0.39500001 0.22400001 7
0.31900001 0.39300001 0.25600001 8
0.31400001 0.40000001 0.242 7
0.294 0.40200001 0.208 6
0.29300001 0.40599999 0.223 7
0.301 0.40400001 0.25400001 8
0.292 0.40799999 0.23800001 7
0.278 0.40799999 0.249 7
0.43399999 0.338 0.32300001 10
0.43000001 0.34999999 0.34799999 9
0.42899999 0.352 0.32699999 9
0.41999999 0.35699999 0.36899999 9
0.405 0.36199999 0.34200001 9
0.398 0.359 0.31600001 9
0.39399999 0.366 0.361 8
0.37900001 0.37099999 0.33500001 8
0.375 0.37200001 0.31299999 9
0.368 0.373 0.352 8
0.35499999 0.38100001 0.329 8
0.352 0.384 0.31 9
0.35499999 0.39300001 0.35600001 7
0.331 0.389 0.324 8
0.32699999 0.39300001 0.30500001 8
0.322 0.389 0.34 8
0.31200001 0.403 0.324 8
0.30599999 0.40599999 0.30500001 8
0.28799999 0.40900001 0.31900001 7
0.28200001 0.414 0.30199999 8
0.26899999 0.42199999 0.31999999 8
