# .PCD v0.7 - Point Cloud Data file format
VERSION 0.7
FIELDS x y z intensity
SIZE 4 4 4 4
TYPE F F F F
COUNT 1 1 1 1
WIDTH 225
HEIGHT 1
VIEWPOINT 0 0 0 1 0 0 0
POINTS 225
DATA ascii
0.81900001 0.093000002 0.0020000001 17
0.81900001 0.111 0.0020000001 17
0.81999999 0.13 0.0020000001 17
0.81800002 0.149 0.0020000001 0
0.81300002 0.011 0.043000001 16
0.81199998 0.028999999 0.043000001 16
0.81900001 0.048 0.044 17
0.824 0.052999999 0.018999999 14
0.81900001 0.066 0.045000002 17
0.824 0.071000002 0.02 14
0.81900001 0.083999999 0.045000002 17
0.82499999 0.090999998 0.02 14
0.82599998 0.096000001 -0.0040000002 14
0.82499999 0.103 0.046 17
0.82300001 0.109 0.02 14
0.824 0.115 -0.0040000002 14
0.82499999 0.122 0.046999998 17
0.83200002 0.13 0.021 14
0.82599998 0.13500001 -0.0040000002 15
0.82700002 0.141 0.048 16
0.83099997 0.149 0.021 14
0.824 0.15899999 0.048 17
0.81400001 -0.029999999 0.092 14
0.82200003 -0.033 0.072999999 12
0.81999999 -0.0099999998 0.114 17
0.82200003 -0.012 0.093000002 12
0.82200003 -0.014 0.072999999 13
0.82200003 0.0070000002 0.115 17
0.82499999 0.0060000001 0.093999997 12
0.82200003 0.0040000002 0.072999999 13
0.81800002 0.003 0.052000001 14
0.82800001 0.025 0.117 15
0.82599998 0.025 0.094999999 13
0.82200003 0.023 0.074000001 13
0.81999999 0.023 0.052000001 15
0.829 0.043000001 0.118 15
0.82499999 0.043000001 0.094999999 13
0.82800001 0.043000001 0.074000001 13
0.82200003 0.043000001 0.052000001 14
0.82800001 0.061000001 0.119 15
0.824 0.061999999 0.096000001 13
0.829 0.061999999 0.075000003 13
0.81999999 0.063000001 0.052000001 14
0.82999998 0.079999998 0.12 15
0.82999998 0.081 0.097000003 13
0.829 0.082000002 0.075000003 13
0.82800001 0.082999997 0.052999999 15
0.83499998 0.098999999 0.122 15
0.83099997 0.1 0.097999997 13
0.83200002 0.102 0.075999998 13
0.82800001 0.104 0.052999999 15
0.838 0.118 0.123 15
0.83399999 0.12 0.098999999 13
0.83099997 0.121 0.075999998 13
0.82599998 0.124 0.052999999 15
0.83700001 0.13600001 0.124 15
0.83600003 0.139 0.1 13
0.83999997 0.14300001 0.077 13
0.829 0.14399999 0.052999999 15
0.83700001 0.155 0.125 15
0.84200001 0.16 0.102 13
0.838 0.162 0.078000002 13
0.829 0.16500001 0.054000001 15
0.84500003 0.175 0.127 16
0.84299999 0.18000001 0.103 13
0.83600003 0.182 0.078000002 13
0.84899998 0.19599999 0.12899999 16
0.84500003 0.2 0.104 13
0.83200002 0.211 0.12800001 17
0.82700002 0.024 0.18000001 15
0.82800001 0.017999999 0.16 15
0.83899999 0.056000002 0.22400001 17
0.84200001 0.050000001 0.20299999 13
0.83700001 0.043000001 0.182 13
0.82999998 0.037 0.161 15
0.84500003 0.075000003 0.227 17
0.83999997 0.068999998 0.204 13
0.83899999 0.063000001 0.183 13
0.829 0.057 0.161 15
0.84500003 0.093000002 0.228 17
0.84299999 0.088 0.206 13
0.83899999 0.082000002 0.184 13
0.83600003 0.078000002 0.162 15
0.84299999 0.111 0.229 17
0.847 0.108 0.208 13
0.83899999 0.102 0.185 13
0.83899999 0.098999999 0.163 15
0.85000002 0.131 0.233 17
0.84799999 0.127 0.20900001 13
0.84600002 0.123 0.18700001 13
0.83999997 0.119 0.164 15
0.84899998 0.15000001 0.234 17
0.84600002 0.147 0.20999999 13
0.84799999 0.14300001 0.189 13
0.83999997 0.14 0.16500001 15
0.85100001 0.169 0.236 17
0.85100001 0.167 0.213 13
0.84600002 0.163 0.189 13
0.84299999 0.161 0.16599999 15
0.85399997 0.189 0.23899999 18
0.85299999 0.18700001 0.215 13
0.85100001 0.185 0.192 13
0.85000002 0.184 0.169 16
0.85500002 0.208 0.241 0
0.85799998 0.20900001 0.21799999 13
0.84899998 0.205 0.193 13
0.84799999 0.205 0.169 16
0.84200001 0.22499999 0.215 8
0.85000002 0.226 0.19400001 13
0.85299999 0.228 0.17200001 16
0.85600001 0.249 0.197 13
0.84200001 0.24699999 0.171 7
0.84100002 0.101 0.294 14
0.84200001 0.121 0.29499999 0
0.83999997 0.071999997 0.264 16
0.838 0.092 0.264 16
0.84200001 0.086999997 0.285 15
0.85100001 0.114 0.26899999 16
0.84200001 0.107 0.285 15
0.85299999 0.13500001 0.27000001 17
0.84899998 0.101 0.30700001 5
0.83399999 0.126 0.28299999 4
0.84100002 0.154 0.26800001 4
0.81999999 0.001 0.13500001 16
0.81699997 0.0060000001 0.153 14
0.824 0.021 0.13500001 15
0.81699997 0.025 0.153 14
0.82599998 0.041000001 0.13600001 15
0.82200003 0.028000001 0.17299999 14
0.82999998 0.044 0.155 13
0.82300001 0.061000001 0.13500001 15
0.83499998 0.028000001 0.19400001 16
0.83099997 0.046999998 0.17399999 13
0.829 0.064000003 0.155 13
0.82800001 0.081 0.13600001 15
0.83099997 0.046 0.192 16
0.833 0.066 0.17399999 13
0.83600003 0.083999999 0.156 13
0.829 0.102 0.13699999 15
0.83399999 0.064000003 0.192 15
0.83099997 0.083999999 0.17399999 13
0.83700001 0.104 0.156 13
0.83600003 0.123 0.138 15
0.83600003 0.082999997 0.192 15
0.84299999 0.105 0.176 13
0.83999997 0.124 0.15700001 13
0.84200001 0.14399999 0.14 15
0.83399999 0.101 0.191 15
0.84299999 0.124 0.176 13
0.83999997 0.14399999 0.15700001 13
0.83999997 0.16500001 0.14 15
0.84500003 0.121 0.193 15
0.84399998 0.14399999 0.176 13
0.838 0.164 0.15700001 13
0.847 0.18700001 0.142 16
0.84500003 0.14 0.192 16
0.847 0.164 0.176 13
0.84600002 0.186 0.15899999 13
0.84200001 0.208 0.142 16
0.84399998 0.15899999 0.192 16
0.84500003 0.184 0.176 13
0.847 0.207 0.16 13
0.84500003 0.23 0.14300001 13
0.84899998 0.17900001 0.193 16
0.84899998 0.205 0.177 13
0.847 0.229 0.161 13
0.847 0.199 0.192 16
0.85600001 0.227 0.17900001 13
0.85000002 0.25 0.162 2
0.84799999 0.21799999 0.192 18
0.85600001 0.248 0.17900001 13
0.85100001 0.23899999 0.192 18
0.85000002 0.259 0.192 18
0.81099999 -0.024 0.096000001 16
0.81300002 -0.014 0.075000003 12
0.80699998 -0.0070000002 0.094999999 16
0.81599998 0.0040000002 0.075000003 12
0.81300002 0.013 0.052999999 12
0.81599998 0.0099999998 0.094999999 16
0.815 0.022 0.074000001 12
0.81999999 0.032000002 0.052999999 13
0.81099999 0.043000001 0.030999999 15
0.81999999 0.028000001 0.094999999 14
0.815 0.041000001 0.074000001 12
0.81900001 0.052000001 0.052999999 13
0.81199998 0.061999999 0.032000002 15
0.81999999 0.046 0.093999997 14
0.81999999 0.059 0.074000001 12
0.82099998 0.071000002 0.052999999 13
0.81800002 0.082999997 0.032000002 15
0.82200003 0.064999998 0.093000002 14
0.81999999 0.078000002 0.072999999 12
0.81900001 0.090000004 0.052000001 13
0.81699997 0.102 0.032000002 15
0.82599998 0.082999997 0.093000002 15
0.82099998 0.097000003 0.072999999 12
0.82499999 0.11 0.052999999 13
0.824 0.123 0.032000002 16
0.82700002 0.102 0.093000002 15
0.82800001 0.117 0.072999999 13
0.82800001 0.131 0.052999999 13
0.82200003 0.14300001 0.033 16
0.82800001 0.12 0.092 15
0.82800001 0.13600001 0.072999999 13
0.829 0.15099999 0.052999999 13
0.81599998 0.163 0.033 4
0.83099997 0.14 0.092 15
0.83099997 0.156 0.072999999 13
0.829 0.171 0.052999999 14
0.83399999 0.15899999 0.090999998 15
0.83200002 0.176 0.071999997 13
0.82800001 0.177 0.090000004 17
0.82499999 0.19400001 0.071999997 0
0.81699997 0.19400001 0.088 16
0.81099999 0.046 0.028000001 16
0.81300002 0.064999998 0.028000001 16
0.81199998 0.082999997 0.027000001 16
0.82200003 0.093999997 0.0040000002 14
0.81800002 0.102 0.027000001 17
0.82300001 0.113 0.003 14
0.82200003 0.122 -0.02 14
0.81900001 0.121 0.026000001 17
0.81999999 0.132 0.003 14
0.82200003 0.14 0.026000001 17
0.80500001 0.155 0.024 4
