# .PCD v0.7 - Point Cloud Data file format
VERSION 0.7
FIELDS x y z intensity
SIZE 4 4 4 4
TYPE F F F F
COUNT 1 1 1 1
WIDTH 198
HEIGHT 1
VIEWPOINT 0 0 0 1 0 0 0
POINTS 198
DATA ascii
0.89700001 0.086999997 0.2 17
0.90600002 0.109 0.20299999 18
0.90399998 0.108 0.222 15
0.91900003 0.133 0.206 17
0.90799999 0.106 0.243 18
0.917 0.131 0.226 14
0.921 0.156 0.207 16
0.91900003 0.12800001 0.24600001 15
0.92699999 0.154 0.229 14
0.92900002 0.18000001 0.20999999 17
0.91900003 0.121 0.264 17
0.92699999 0.15099999 0.248 13
0.93400002 0.178 0.23100001 13
0.93599999 0.205 0.213 15
0.926 0.142 0.26499999 1
0.93000001 0.17299999 0.249 0
0.87699997 0.030999999 0.075999998 16
0.88499999 0.039000001 0.097999997 15
0.89399999 0.054000001 0.078000002 16
0.88099998 0.045000002 0.119 14
0.89399999 0.059999999 0.098999999 14
0.89499998 0.075000003 0.078000002 16
0.89399999 0.048999999 0.141 17
0.89899999 0.067000002 0.121 14
0.90100002 0.082000002 0.1 14
0.90200001 0.097999997 0.079000004 17
0.90200001 0.07 0.142 17
0.90499997 0.088 0.121 14
0.90700001 0.104 0.1 14
0.90600002 0.12 0.079000004 17
0.90799999 0.090000004 0.142 17
0.912 0.109 0.122 14
0.912 0.126 0.101 14
0.91500002 0.14399999 0.079999998 17
0.91600001 0.111 0.142 17
0.917 0.131 0.122 14
0.91399997 0.148 0.101 14
0.91600001 0.167 0.081 17
0.92000002 0.132 0.142 17
0.91799998 0.152 0.122 14
0.92299998 0.17200001 0.102 14
0.926 0.192 0.082000002 18
0.92299998 0.154 0.142 17
0.92000002 0.17399999 0.122 14
0.92799997 0.19499999 0.103 14
0.92699999 0.215 0.082999997 17
0.92500001 0.175 0.142 18
0.93400002 0.199 0.124 14
0.93199998 0.219 0.104 14
0.95099998 0.245 0.086000003 8
0.92900002 0.197 0.142 17
0.93900001 0.223 0.124 14
0.94 0.244 0.105 13
0.93300003 0.219 0.142 17
0.94300002 0.24600001 0.125 13
0.94300002 0.244 0.14300001 19
0.95200002 0.27200001 0.126 0
0.935 0.264 0.141 14
0.86000001 0.013 0.032000002 13
0.875 0.023 0.056000002 17
0.884 0.033 0.032000002 13
0.88 0.041999999 0.056000002 18
0.89300001 0.054000001 0.032000002 14
0.88700002 0.063000001 0.0070000002 16
0.88300002 0.061999999 0.055 18
0.89399999 0.074000001 0.032000002 14
0.89200002 0.083999999 0.0060000001 16
0.89200002 0.082999997 0.055 17
0.89999998 0.096000001 0.030999999 13
0.89999998 0.106 0.0060000001 16
0.90200001 0.117 -0.017999999 18
0.90799999 0.104 0.055 17
0.90499997 0.117 0.030999999 14
0.90899998 0.12899999 0.0060000001 17
0.90499997 0.14 -0.017999999 18
0.90700001 0.124 0.055 17
0.912 0.139 0.030999999 14
0.91600001 0.152 0.0060000001 17
0.91000003 0.163 -0.017999999 18
0.91399997 0.146 0.054000001 17
0.91500002 0.161 0.029999999 14
0.91900003 0.175 0.0060000001 14
0.90100002 0.184 -0.017999999 16
0.91900003 0.168 0.054000001 17
0.92400002 0.184 0.029999999 14
0.91399997 0.19599999 0.0049999999 14
0.92400002 0.19 0.052999999 17
0.93000001 0.208 0.029999999 14
0.926 0.212 0.052000001 19
0.88300002 0.072999999 0.0049999999 18
0.88999999 0.093000002 0.0040000002 18
0.89300001 0.114 0.0040000002 19
0.90200001 0.126 -0.024 13
0.89999998 0.13600001 0.003 19
0.90899998 0.148 -0.025 13
0.90499997 0.15700001 0.0020000001 19
0.917 0.171 -0.026000001 14
0.90899998 0.178 0.0020000001 19
0.90100002 0.198 0.001 2
0.884 0.068000004 0.0080000004 18
0.89600003 0.090000004 0.0089999996 19
0.89399999 0.11 0.0089999996 19
0.903 0.119 -0.021 13
0.90100002 0.131 0.0089999996 19
0.91399997 0.142 -0.021 14
0.90899998 0.153 0.0089999996 19
0.91799998 0.164 -0.021 13
0.89600003 0.169 -0.050999999 6
0.91500002 0.17399999 0.0099999998 19
0.90600002 0.183 -0.021 9
0.917 0.19599999 0.0099999998 20
0.86500001 0.017999999 0.057999998 17
0.88200003 0.021 0.033 13
0.87599999 0.037 0.059999999 18
0.884 0.041000001 0.034000002 13
0.88300002 0.057 0.061000001 18
0.89300001 0.061999999 0.035 14
0.889 0.066 0.0089999996 16
0.89200002 0.077 0.061999999 18
0.89499998 0.082999997 0.035 14
0.89499998 0.086999997 0.0089999996 16
0.89300001 0.097000003 0.063000001 17
0.903 0.104 0.035999998 14
0.89999998 0.109 0.0089999996 16
0.89999998 0.115 -0.017999999 18
0.90899998 0.119 0.064999998 17
0.90799999 0.126 0.037 14
0.90700001 0.131 0.0089999996 17
0.90499997 0.138 -0.017999999 18
0.912 0.14 0.066 17
0.91000003 0.147 0.037 14
0.91500002 0.154 0.0089999996 17
0.91000003 0.161 -0.017999999 18
0.92000002 0.162 0.067000002 18
0.92400002 0.171 0.037999999 14
0.91600001 0.177 0.0099999998 17
0.903 0.183 -0.017999999 12
0.926 0.184 0.068000004 18
0.92500001 0.193 0.039000001 14
0.912 0.198 0.0099999998 13
0.93000001 0.207 0.068999998 18
0.91900003 0.213 0.039000001 10
0.92799997 0.228 0.07 18
0.86900002 0.023 0.075000003 16
0.88099998 0.046999998 0.121 14
0.88999999 0.045000002 0.1 13
0.889 0.045000002 0.077 16
0.903 0.068999998 0.148 17
0.90200001 0.068000004 0.124 14
0.89300001 0.066 0.1 13
0.89600003 0.067000002 0.077 16
0.90700001 0.089000002 0.15000001 17
0.90799999 0.089000002 0.126 14
0.90200001 0.088 0.102 14
0.903 0.089000002 0.078000002 17
0.91399997 0.109 0.152 17
0.91100001 0.11 0.127 14
0.91299999 0.111 0.104 14
0.90700001 0.112 0.079000004 17
0.92000002 0.131 0.155 17
0.91600001 0.132 0.12899999 14
0.91399997 0.132 0.104 14
0.90600002 0.134 0.079000004 17
0.92500001 0.152 0.15700001 18
0.92400002 0.154 0.131 14
0.91799998 0.155 0.105 14
0.91600001 0.15800001 0.079999998 17
0.92799997 0.17299999 0.15899999 18
0.92699999 0.176 0.132 14
0.92699999 0.17900001 0.107 14
0.921 0.18099999 0.081 17
0.93599999 0.19599999 0.161 18
0.94300002 0.20200001 0.13600001 14
0.92799997 0.20100001 0.108 14
0.92699999 0.206 0.082000002 16
0.94199997 0.219 0.164 17
0.94400001 0.22400001 0.13699999 14
0.93599999 0.226 0.11 13
0.93000001 0.23 0.082999997 16
0.94599998 0.241 0.16599999 17
0.94499999 0.24699999 0.138 13
0.94800001 0.25299999 0.112 6
0.949 0.264 0.168 17
0.963 0.27500001 0.142 1
0.92199999 0.119 0.27700001 2
0.91799998 0.112 0.25099999 13
0.92000002 0.105 0.228 14
0.91500002 0.098999999 0.204 17
0.92400002 0.134 0.25400001 14
0.92299998 0.127 0.23 13
0.917 0.122 0.205 17
0.921 0.154 0.255 0
0.926 0.15000001 0.23199999 13
0.92500001 0.146 0.208 16
0.93199998 0.17299999 0.235 10
0.93099999 0.169 0.20999999 16
0.935 0.193 0.212 15
0.93699998 0.21699999 0.214 3
