# .PCD v0.7 - Point Cloud Data file format
VERSION 0.7
FIELDS x y z intensity
SIZE 4 4 4 4
TYPE F F F F
COUNT 1 1 1 1
WIDTH 187
HEIGHT 1
VIEWPOINT 0 0 0 1 0 0 0
POINTS 187
DATA ascii
0.58999997 0.096000001 0.030999999 10
0.59299999 0.123 0.032000002 10
0.59500003 0.13 0.013 9
0.58600003 0.149 0.032000002 10
0.59200001 0.15800001 0.013 9
0.59100002 0.164 -0.0060000001 8
0.583 0.176 0.033 10
0.58899999 0.186 0.013 9
0.58600003 0.193 -0.0049999999 8
0.57700002 0.199 -0.025 10
0.58200002 0.204 0.033 10
0.58999997 0.21600001 0.014 9
0.58499998 0.22400001 -0.0049999999 8
0.57800001 0.23100001 -0.026000001 10
0.57800001 0.23199999 0.034000002 10
0.583 0.245 0.014 9
0.57700002 0.252 -0.0049999999 8
0.57200003 0.26100001 -0.026000001 10
0.57499999 0.26100001 0.035 11
0.57999998 0.27500001 0.015 9
0.58200002 0.28799999 -0.0049999999 9
0.57099998 0.28999999 0.035 11
0.57200003 0.30399999 0.015 6
0.588 0.1 0.033 10
0.58700001 0.111 0.050000001 9
0.59200001 0.12 0.085000001 10
0.59600002 0.124 0.068000004 8
0.59200001 0.141 0.050999999 9
0.58600003 0.146 0.086000003 10
0.59500003 0.152 0.068999998 8
0.58499998 0.15800001 0.034000002 10
0.58700001 0.169 0.052000001 9
0.588 0.17399999 0.088 10
0.59200001 0.18000001 0.07 8
0.58399999 0.189 0.035 10
0.579 0.19599999 0.052000001 9
0.58499998 0.20100001 0.089000002 10
0.59299999 0.20999999 0.071999997 9
0.57800001 0.21799999 0.035 10
0.57499999 0.22499999 0.052999999 9
0.57999998 0.228 0.090000004 10
0.58600003 0.23800001 0.072999999 9
0.57800001 0.25099999 0.035999998 11
0.57999998 0.259 0.055 9
0.58099997 0.25799999 0.093000002 11
0.58600003 0.27000001 0.075000003 9
0.57200003 0.28099999 0.037 11
0.57499999 0.28999999 0.056000002 10
0.57599998 0.287 0.093999997 11
0.58399999 0.301 0.077 9
0.57700002 0.32499999 0.057999998 9
0.57800001 0.31999999 0.097999997 11
0.588 0.338 0.079999998 9
0.59399998 0.127 0.112 10
0.588 0.14 0.12800001 9
0.58700001 0.14 0.112 10
0.58399999 0.154 0.14399999 9
0.59100002 0.169 0.164 11
0.588 0.17 0.13 9
0.59100002 0.17200001 0.114 10
0.58899999 0.184 0.148 9
0.59299999 0.198 0.168 11
0.58399999 0.198 0.132 9
0.58899999 0.20200001 0.116 10
0.583 0.211 0.149 9
0.58899999 0.22499999 0.17 11
0.583 0.229 0.134 9
0.58700001 0.234 0.118 10
0.58099997 0.241 0.152 10
0.59100002 0.25600001 0.17399999 11
0.588 0.26300001 0.139 10
0.58499998 0.266 0.121 10
0.597 0.27399999 0.178 11
0.59200001 0.27700001 0.15899999 9
0.58600003 0.28400001 0.177 12
0.58499998 0.29499999 0.141 10
0.58700001 0.30199999 0.124 11
0.59500003 0.30500001 0.182 11
0.59500003 0.31099999 0.164 9
0.58700001 0.31999999 0.126 12
0.59500003 0.32100001 0.185 11
0.58499998 0.33000001 0.146 10
0.58499998 0.34 0.16599999 11
0.57999998 0.354 0.12899999 12
0.58600003 0.34900001 0.18700001 3
0.58499998 0.366 0.15000001 10
0.58200002 0.375 0.17 7
0.59299999 0.193 0.229 9
0.60000002 0.193 0.214 11
0.59100002 0.211 0.25 10
0.597 0.208 0.214 11
0.58999997 0.223 0.233 9
0.58999997 0.23800001 0.21699999 11
0.59299999 0.273 0.223 11
0.59200001 0.185 0.199 11
0.59500003 0.19400001 0.213 10
0.59799999 0.219 0.204 11
0.59600002 0.2 0.226 10
0.611 0.23100001 0.222 9
0.597 0.25099999 0.208 11
0.59899998 0.20299999 0.237 12
0.60299999 0.233 0.23100001 9
0.61000001 0.26300001 0.22499999 10
0.59500003 0.28400001 0.211 11
0.60100001 0.27599999 0.223 10
0.58899999 0.29899999 0.211 0
0.60500002 0.236 0.241 11
0.59100002 0.245 0.237 3
0.59100002 0.132 0.103 10
0.588 0.13 0.115 9
0.59200001 0.162 0.105 10
0.58600003 0.142 0.126 9
0.597 0.162 0.118 8
0.58700001 0.192 0.106 10
0.59799999 0.154 0.14 10
0.59200001 0.17200001 0.12800001 9
0.59899998 0.193 0.119 8
0.58399999 0.222 0.107 11
0.597 0.182 0.139 10
0.59500003 0.20299999 0.13 9
0.60000002 0.22400001 0.121 9
0.58399999 0.255 0.109 11
0.597 0.212 0.139 11
0.59600002 0.234 0.131 9
0.59899998 0.257 0.122 9
0.58700001 0.273 0.111 11
0.58600003 0.23800001 0.13699999 11
0.597 0.266 0.133 10
0.59600002 0.289 0.124 9
0.58700001 0.308 0.114 11
0.58200002 0.32300001 0.115 12
0.59899998 0.27399999 0.141 11
0.59500003 0.29800001 0.134 10
0.59899998 0.32499999 0.127 10
0.59299999 0.30399999 0.141 11
0.59200001 0.331 0.13500001 10
0.58499998 0.33399999 0.14 12
0.57599998 0.35800001 0.134 1
0.58899999 0.088 0.026000001 10
0.58499998 0.092 0.039999999 9
0.58999997 0.097000003 0.055 9
0.58499998 0.117 0.027000001 10
0.60000002 0.1 0.068999998 9
0.588 0.121 0.041000001 9
0.58499998 0.123 0.054000001 8
0.58600003 0.147 0.027000001 10
0.60100001 0.12800001 0.068000004 10
0.58499998 0.149 0.039999999 9
0.583 0.15099999 0.052999999 8
0.588 0.177 0.028000001 10
0.59500003 0.154 0.067000002 10
0.58499998 0.17900001 0.041000001 9
0.58499998 0.18000001 0.052999999 9
0.583 0.207 0.028000001 10
0.58999997 0.18099999 0.064999998 10
0.58200002 0.208 0.041000001 9
0.58099997 0.20900001 0.052999999 9
0.579 0.237 0.028999999 10
0.59200001 0.211 0.064999998 10
0.583 0.23999999 0.041000001 9
0.58099997 0.23899999 0.052999999 9
0.57999998 0.271 0.029999999 11
0.58899999 0.23999999 0.064000003 10
0.579 0.27000001 0.041000001 10
0.579 0.27000001 0.052999999 9
0.58600003 0.27000001 0.063000001 10
0.58899999 0.30899999 0.043000001 9
0.57599998 0.301 0.052000001 10
0.57800001 0.29800001 0.061999999 11
0.597 0.102 0.02 10
0.59200001 0.12800001 0.018999999 10
0.597 0.139 0.003 9
0.588 0.155 0.017999999 10
0.59500003 0.168 0.0020000001 9
0.59200001 0.176 -0.014 8
0.58600003 0.183 0.016000001 10
0.59200001 0.19599999 0.001 9
0.59399998 0.208 -0.014 8
0.58499998 0.215 -0.029999999 10
0.588 0.213 0.015 11
0.59100002 0.227 0 9
0.59399998 0.23899999 -0.015 9
0.58099997 0.24600001 -0.029999999 10
0.58200002 0.241 0.014 11
0.588 0.257 0 9
0.58899999 0.27000001 -0.015 9
0.58099997 0.271 0.013 11
