# .PCD v0.7 - Point Cloud Data file format
VERSION 0.7
FIELDS x y z intensity
SIZE 4 4 4 4
TYPE F F F F
COUNT 1 1 1 1
WIDTH 169
HEIGHT 1
VIEWPOINT 0 0 0 1 0 0 0
POINTS 169
DATA ascii
0.449 0.322 0.36899999 11
0.43099999 0.34 0.36700001 11
0.41499999 0.32499999 0.36700001 0
0.41999999 0.36399999 0.37200001 9
0.48500001 0.28200001 0.271 10
0.46200001 0.29699999 0.266 10
0.46900001 0.28799999 0.278 8
0.44600001 0.31799999 0.266 10
0.472 0.289 0.28999999 9
0.463 0.31400001 0.28200001 8
0.42500001 0.333 0.26199999 9
0.44999999 0.30399999 0.28299999 8
0.44 0.329 0.27599999 8
0.472 0.29800001 0.301 10
0.40400001 0.34900001 0.259 9
0.43000001 0.31999999 0.27900001 8
0.42300001 0.347 0.27500001 8
0.45100001 0.31400001 0.294 10
0.38699999 0.36700001 0.259 9
0.412 0.33700001 0.27500001 8
0.405 0.36500001 0.273 8
0.43000001 0.33000001 0.287 9
0.36899999 0.38299999 0.25799999 9
0.39700001 0.35499999 0.27399999 8
0.384 0.37900001 0.27000001 7
0.41100001 0.34599999 0.28299999 9
0.352 0.40099999 0.25999999 9
0.375 0.36899999 0.27000001 8
0.366 0.39700001 0.26899999 7
0.39500001 0.36399999 0.28099999 9
0.331 0.414 0.25799999 8
0.36300001 0.38999999 0.27200001 8
0.34900001 0.41499999 0.27000001 7
0.377 0.382 0.278 9
0.34099999 0.40200001 0.26699999 8
0.35800001 0.398 0.27500001 9
0.33700001 0.41100001 0.271 9
0.50300002 0.245 0.177 9
0.49900001 0.248 0.185 8
0.484 0.264 0.17399999 9
0.495 0.25 0.193 8
0.48899999 0.27200001 0.186 7
0.46900001 0.28600001 0.17399999 9
0.47499999 0.26800001 0.189 8
0.46900001 0.28999999 0.182 7
0.449 0.303 0.171 9
0.49399999 0.264 0.20100001 9
0.45699999 0.285 0.185 8
0.44800001 0.30700001 0.17900001 7
0.42899999 0.32100001 0.17 8
0.47600001 0.28200001 0.19599999 9
0.44100001 0.30399999 0.183 8
0.42699999 0.322 0.176 7
0.412 0.33899999 0.169 8
0.45500001 0.29800001 0.191 9
0.42500001 0.32300001 0.18099999 8
0.40900001 0.34 0.17399999 7
0.39500001 0.35699999 0.169 8
0.43900001 0.317 0.18799999 9
0.40599999 0.33899999 0.178 7
0.39500001 0.361 0.175 7
0.37599999 0.37400001 0.168 8
0.42300001 0.336 0.186 8
0.389 0.35600001 0.177 7
0.37400001 0.375 0.17299999 7
0.403 0.35100001 0.182 8
0.37099999 0.37200001 0.175 7
0.384 0.366 0.17900001 9
0.36500001 0.382 0.176 8
0.40900001 0.324 0.093999997 7
0.398 0.34 0.089000002 7
0.41299999 0.31900001 0.097999997 7
0.41999999 0.31299999 0.102 8
0.39199999 0.34200001 0.093000002 7
0.37400001 0.35100001 0.086999997 5
0.39500001 0.33399999 0.097000003 7
0.40200001 0.329 0.1 8
0.37400001 0.34799999 0.093999997 7
0.384 0.34400001 0.097999997 8
0.45300001 0.28600001 0.122 8
0.44 0.30500001 0.122 8
0.43599999 0.31299999 0.107 7
0.417 0.317 0.12 8
0.41499999 0.32699999 0.106 7
0.38999999 0.33399999 0.089000002 7
0.40099999 0.33399999 0.119 8
0.403 0.34799999 0.107 7
0.37099999 0.34799999 0.088 5
0.38499999 0.34900001 0.119 8
0.382 0.36199999 0.106 7
0.50099999 0.243 0.175 8
0.50199997 0.245 0.16 9
0.493 0.252 0.19 8
0.48699999 0.259 0.206 9
0.48300001 0.26199999 0.17299999 8
0.486 0.26699999 0.15899999 8
0.47799999 0.271 0.189 8
0.47400001 0.27900001 0.206 9
0.463 0.28 0.171 8
0.46000001 0.28299999 0.156 8
0.456 0.287 0.186 8
0.454 0.294 0.20299999 9
0.447 0.29899999 0.171 8
0.44400001 0.303 0.155 8
0.44 0.30399999 0.185 7
0.43700001 0.31 0.20200001 9
0.428 0.31600001 0.169 7
0.42899999 0.324 0.156 8
0.426 0.324 0.186 8
0.421 0.32699999 0.20100001 9
0.40900001 0.333 0.168 7
0.40799999 0.34 0.155 8
0.40599999 0.338 0.184 7
0.40400001 0.34200001 0.2 9
0.391 0.34900001 0.168 7
0.38699999 0.35499999 0.154 8
0.38499999 0.35100001 0.182 7
0.384 0.35499999 0.198 8
0.37599999 0.36899999 0.169 7
0.36700001 0.37099999 0.153 8
0.37099999 0.36899999 0.183 7
0.37200001 0.375 0.2 9
0.35299999 0.38 0.167 6
0.352 0.384 0.183 7
0.35499999 0.389 0.2 9
0.48800001 0.26800001 0.25299999 10
0.47999999 0.278 0.271 8
0.48300001 0.28 0.25400001 9
0.46900001 0.28799999 0.28799999 8
0.46399999 0.29800001 0.30899999 10
0.46000001 0.296 0.26800001 8
0.458 0.296 0.249 9
0.44800001 0.303 0.28299999 8
0.44999999 0.317 0.30899999 10
0.44400001 0.315 0.26699999 8
0.44 0.315 0.24699999 9
0.42899999 0.31799999 0.28 8
0.42699999 0.329 0.30199999 9
0.42199999 0.33000001 0.26300001 8
0.42199999 0.33399999 0.24699999 9
0.41499999 0.33700001 0.28099999 8
0.412 0.34599999 0.30199999 9
0.40400001 0.347 0.26300001 8
0.40099999 0.34900001 0.245 9
0.396 0.352 0.27900001 8
0.39899999 0.36399999 0.303 10
0.389 0.36700001 0.264 8
0.38299999 0.368 0.24600001 9
0.38100001 0.37 0.28 8
0.37900001 0.37599999 0.30000001 9
0.368 0.38 0.26199999 8
0.36500001 0.38600001 0.24600001 9
0.36300001 0.38499999 0.28 8
0.361 0.38999999 0.29899999 9
0.352 0.39899999 0.264 8
0.34400001 0.40099999 0.24600001 8
0.34599999 0.40099999 0.28 8
0.34299999 0.40400001 0.29800001 9
0.333 0.414 0.264 8
0.32800001 0.41600001 0.28099999 8
0.32600001 0.41800001 0.29800001 9
0.46000001 0.31 0.354 10
0.45300001 0.322 0.38 9
0.461 0.32800001 0.36199999 10
0.44299999 0.34599999 0.38499999 9
0.44100001 0.34599999 0.36000001 10
0.41299999 0.35699999 0.352 10
0.39399999 0.375 0.35100001 10
0.347 0.36300001 0.32600001 1
