# .PCD v0.7 - Point Cloud Data file format
VERSION 0.7
FIELDS x y z intensity
SIZE 4 4 4 4
TYPE F F F F
COUNT 1 1 1 1
WIDTH 673
HEIGHT 1
VIEWPOINT 0 0 0 1 0 0 0
POINTS 673
DATA ascii
0.59899998 -0.017999999 0.044 10
0.60600001 -0.012 0.028000001 8
0.60699999 0.0080000004 0.044 10
0.61299998 0.015 0.027000001 8
0.60600001 0.021 0.0099999998 8
0.60799998 0.035 0.043000001 10
0.61500001 0.043000001 0.027000001 9
0.61699998 0.050000001 0.0099999998 9
0.60600001 0.056000002 -0.0060000001 10
0.61299998 0.061999999 0.041999999 10
0.61400002 0.071000002 0.026000001 8
0.61500001 0.079000004 0.0089999996 8
0.62 0.088 -0.0070000002 10
0.61299998 0.090000004 0.041000001 10
0.62199998 0.101 0.026000001 9
0.62 0.109 0.0089999996 8
0.62400001 0.119 -0.0070000002 10
0.61699998 0.118 0.039999999 10
0.62800002 0.132 0.025 9
0.63300002 0.14300001 0.0089999996 9
0.62400001 0.15099999 -0.0060000001 10
0.62199998 0.148 0.039999999 11
0.63200003 0.163 0.025 9
0.63700002 0.175 0.0089999996 9
0.62800002 0.17900001 0.039000001 11
0.25400001 0.41999999 0.001 7
0.259 0.419 0.0040000002 6
0.242 0.44600001 0.0020000001 7
0.25299999 0.42300001 0.0060000001 6
0.24699999 0.44499999 0.0040000002 5
0.257 0.41999999 0.0060000001 7
0.22400001 0.463 0.003 7
0.242 0.45100001 0.0049999999 6
0.233 0.47099999 0.0040000002 6
0.244 0.442 0.0049999999 7
0.20100001 0.47099999 0.003 7
0.222 0.46399999 0.0040000002 6
0.20900001 0.47799999 0.0040000002 6
0.23100001 0.46799999 0.003 8
0.207 0.472 0.0020000001 7
0.602 0.027000001 0.0060000001 10
0.60600001 0.055 0.0049999999 10
0.61000001 0.061999999 -0.013 8
0.61199999 0.082999997 0.0040000002 10
0.61699998 0.090999998 -0.014 9
0.62 0.097999997 -0.034000002 8
0.61400002 0.111 0.003 10
0.62400001 0.121 -0.015 9
0.625 0.12899999 -0.035 8
0.61799997 0.13500001 -0.055 10
0.61799997 0.141 0.0020000001 11
0.625 0.152 -0.016000001 9
0.25299999 0.41999999 -0.034000002 7
0.25400001 0.417 -0.028000001 6
0.257 0.419 -0.022 6
0.23 0.42699999 -0.033 6
0.26699999 0.428 -0.017999999 7
0.23800001 0.43700001 -0.028000001 6
0.23899999 0.43200001 -0.023 6
0.219 0.45699999 -0.033 7
0.24600001 0.43799999 -0.02 7
0.22400001 0.46200001 -0.028999999 6
0.22499999 0.456 -0.024 6
0.211 0.5 -0.035 8
0.237 0.47099999 -0.022 7
0.212 0.493 -0.029999999 7
0.208 0.47600001 -0.025 6
0.213 0.477 -0.024 7
0.60699999 0.037999999 0.003 10
0.60900003 0.066 0.003 10
0.616 0.071999997 -0.017000001 9
0.61799997 0.094999999 0.0040000002 10
0.62099999 0.102 -0.017000001 9
0.625 0.109 -0.037999999 8
0.61699998 0.123 0.0040000002 11
0.62400001 0.132 -0.017000001 9
0.62900001 0.14 -0.039000001 8
0.62900001 0.155 0.0040000002 11
0.62699997 0.169 0.0040000002 9
0.25299999 0.414 -0.039999999 6
0.25799999 0.41800001 -0.027000001 6
0.259 0.41499999 -0.015 6
0.235 0.43000001 -0.039000001 7
0.25299999 0.421 -0.0040000002 7
0.249 0.44400001 -0.015 6
0.219 0.44999999 -0.039000001 7
0.227 0.45899999 -0.028000001 6
0.243 0.449 -0.0049999999 7
0.237 0.47099999 -0.016000001 6
0.213 0.49599999 -0.041000001 8
0.20999999 0.47999999 -0.028000001 6
0.226 0.46900001 -0.0060000001 7
0.214 0.47999999 -0.017000001 6
0.20299999 0.47600001 -0.0070000002 7
0.59899998 -0.02 0.035 10
0.60399997 0.0049999999 0.035999998 10
0.61000001 0.0070000002 0.017999999 8
0.60600001 0.032000002 0.037 10
0.611 0.035 0.018999999 9
0.61299998 0.037999999 0.001 8
0.61299998 0.059 0.037999999 10
0.61299998 0.063000001 0.018999999 9
0.61500001 0.067000002 0.001 8
0.60500002 0.07 -0.017000001 9
0.61699998 0.086999997 0.039000001 10
0.61799997 0.092 0.02 9
0.62199998 0.097000003 0.001 8
0.61799997 0.102 -0.017999999 10
0.61699998 0.115 0.039999999 11
0.62199998 0.122 0.021 9
0.62699997 0.12899999 0.001 9
0.61699998 0.133 -0.017999999 10
0.62400001 0.145 0.041999999 11
0.63499999 0.155 0.022 9
0.63300002 0.161 0.0020000001 9
0.63300002 0.177 0.043000001 11
0.60799998 0.178 0.022 1
0.25299999 0.421 -0.0070000002 7
0.255 0.417 0.0049999999 6
0.25999999 0.41999999 0.018999999 6
0.23999999 0.44499999 -0.0070000002 7
0.273 0.433 0.032000002 7
0.245 0.44600001 0.0060000001 6
0.24600001 0.442 0.018999999 6
0.223 0.46599999 -0.0060000001 7
0.257 0.45199999 0.032000002 7
0.226 0.461 0.0060000001 6
0.233 0.46700001 0.02 7
0.20200001 0.479 -0.0049999999 7
0.244 0.47799999 0.033 7
0.20200001 0.46599999 0.0070000002 6
0.208 0.46900001 0.018999999 6
0.21699999 0.47799999 0.030999999 7
0.59899998 -0.030999999 0.045000002 10
0.60500002 -0.013 0.075000003 9
0.611 -0.016000001 0.061000001 8
0.611 0.001 0.092 10
0.60399997 -0.0020000001 0.045000002 10
0.61000001 0.013 0.075999998 9
0.61500001 0.012 0.061999999 8
0.616 0.028000001 0.093999997 10
0.61199999 0.026000001 0.046 10
0.61199999 0.041000001 0.078000002 9
0.625 0.041000001 0.063000001 8
0.61400002 0.054000001 0.094999999 10
0.61400002 0.056000002 0.046 10
0.61299998 0.068999998 0.079000004 9
0.63 0.071000002 0.064000003 8
0.625 0.082999997 0.097999997 11
0.61400002 0.086000003 0.046 10
0.62 0.097999997 0.081 9
0.63700002 0.102 0.066 8
0.62699997 0.111 0.1 11
0.62199998 0.118 0.048 11
0.625 0.12800001 0.082999997 9
0.63999999 0.134 0.067000002 9
0.63499999 0.142 0.103 11
0.62699997 0.15000001 0.048 11
0.63599998 0.16 0.086000003 10
0.64600003 0.167 0.068999998 9
0.63700002 0.17200001 0.106 11
0.63499999 0.185 0.050000001 11
0.63599998 0.192 0.088 10
0.65799999 0.20299999 0.071999997 9
0.648 0.205 0.11 12
0.26100001 0.43399999 0.045000002 7
0.26300001 0.43099999 0.057999998 6
0.26699999 0.43200001 0.071999997 6
0.248 0.461 0.046999998 7
0.27700001 0.44100001 0.086999997 7
0.255 0.46399999 0.061999999 7
0.25799999 0.46399999 0.075000003 7
0.228 0.477 0.048 7
0.26499999 0.46700001 0.089000002 7
0.234 0.479 0.063000001 7
0.23899999 0.47999999 0.075999998 7
0.20100001 0.47799999 0.048 7
0.24699999 0.484 0.090000004 8
0.205 0.47499999 0.061000001 7
0.20999999 0.47600001 0.074000001 6
0.22 0.48300001 0.088 7
0.2 0.49599999 0.088 8
0.61699998 0.024 0.14300001 9
0.62099999 0.02 0.12899999 10
0.63700002 0.050000001 0.18000001 11
0.63300002 0.045000002 0.163 9
0.62599999 0.054000001 0.146 10
0.625 0.050000001 0.13 10
0.64200002 0.079000004 0.183 11
0.63800001 0.074000001 0.16500001 9
0.62599999 0.082999997 0.147 9
0.63300002 0.081 0.133 10
0.63300002 0.106 0.183 10
0.64200002 0.104 0.168 10
0.63800001 0.115 0.152 10
0.63200003 0.112 0.134 10
0.65600002 0.138 0.193 11
0.65499997 0.13699999 0.17399999 9
0.64600003 0.15000001 0.17299999 11
0.66299999 0.152 0.16 10
0.64300001 0.146 0.138 11
0.66000003 0.169 0.197 11
0.65499997 0.167 0.177 10
0.65399998 0.182 0.16 10
0.65399998 0.182 0.142 11
0.667 0.20200001 0.183 10
0.66100001 0.20100001 0.163 10
0.65499997 0.21699999 0.145 12
0.662 0.235 0.167 11
0.66600001 0.23899999 0.149 12
0.65899998 0.25400001 0.148 0
0.27200001 0.44100001 0.117 7
0.27200001 0.43799999 0.12899999 6
0.27599999 0.442 0.14399999 7
0.25799999 0.46599999 0.121 8
0.28400001 0.449 0.16 8
0.25799999 0.46200001 0.133 7
0.259 0.45899999 0.146 7
0.235 0.477 0.121 8
0.26499999 0.463 0.161 8
0.237 0.47499999 0.134 7
0.23999999 0.47499999 0.148 7
0.20900001 0.48100001 0.121 8
0.24699999 0.479 0.162 8
0.214 0.484 0.13500001 7
0.21699999 0.48100001 0.147 7
0.22400001 0.486 0.161 8
0.625 0.094999999 0.26499999 0
0.65499997 0.090999998 0.259 9
0.64600003 0.082000002 0.236 11
0.63999999 0.104 0.25400001 0
0.648 0.097999997 0.23800001 11
0.65499997 0.115 0.242 11
0.46200001 0.41999999 0.292 10
0.43000001 0.426 0.28299999 11
0.42699999 0.454 0.27200001 8
0.41 0.442 0.28200001 11
0.41999999 0.46799999 0.27500001 8
0.384 0.44999999 0.27700001 10
0.39300001 0.479 0.271 8
0.361 0.463 0.27500001 11
0.36000001 0.47999999 0.26300001 9
0.36199999 0.50199997 0.25400001 9
0.29100001 0.44100001 0.20299999 8
0.336 0.47 0.27000001 10
0.31799999 0.46700001 0.248 6
0.29300001 0.44800001 0.221 7
0.266 0.449 0.20200001 8
0.296 0.454 0.25299999 8
0.28400001 0.45899999 0.237 7
0.27500001 0.46599999 0.22400001 6
0.24699999 0.46700001 0.205 8
0.27900001 0.472 0.25600001 9
0.266 0.47499999 0.23999999 7
0.222 0.47299999 0.204 8
0.255 0.47600001 0.252 9
0.241 0.479 0.237 7
0.226 0.479 0.22 7
0.23 0.479 0.248 8
0.212 0.47400001 0.23 7
0.204 0.47600001 0.241 8
0.67000002 0.113 0.44499999 1
0.65700001 0.153 0.44400001 4
0.662 0.169 0.44999999 7
0.64999998 0.18099999 0.44499999 12
0.60699999 0.183 0.419 12
0.597 0.193 0.41499999 12
0.58700001 0.204 0.412 12
0.62300003 0.206 0.40599999 1
0.579 0.215 0.41 12
0.61000001 0.21600001 0.40099999 3
0.57200003 0.226 0.40799999 12
0.60000002 0.228 0.398 5
0.56199998 0.236 0.405 12
0.58099997 0.236 0.389 6
0.55599999 0.24600001 0.405 12
0.57300001 0.24699999 0.38800001 9
0.54900002 0.257 0.40400001 12
0.56300002 0.257 0.38499999 9
0.574 0.25600001 0.366 2
0.53899997 0.266 0.40099999 11
0.57300001 0.271 0.36899999 9
0.537 0.27900001 0.40400001 12
0.54900002 0.28099999 0.38499999 9
0.56 0.28099999 0.36500001 8
0.53299999 0.28799999 0.37799999 9
0.55199999 0.29300001 0.36399999 9
0.51800001 0.29800001 0.39899999 11
0.54500002 0.30500001 0.36500001 10
0.514 0.30700001 0.37400001 9
0.52700001 0.31099999 0.35800001 9
0.54299998 0.31900001 0.34400001 11
0.50599998 0.31999999 0.40000001 10
0.51099998 0.32100001 0.37799999 9
0.51800001 0.322 0.35699999 9
0.52700001 0.32699999 0.33899999 11
0.50300002 0.329 0.329 11
0.486 0.336 0.396 10
0.5 0.34400001 0.35600001 9
0.50300002 0.34599999 0.33500001 12
0.47299999 0.34200001 0.366 9
0.461 0.34799999 0.38699999 11
0.47600001 0.36000001 0.35100001 9
0.47799999 0.36300001 0.33000001 10
0.45199999 0.35800001 0.36199999 10
0.461 0.368 0.32499999 11
0.44299999 0.36500001 0.38499999 7
0.449 0.37200001 0.366 8
0.45300001 0.377 0.347 8
0.46000001 0.38600001 0.33199999 10
0.433 0.38699999 0.389 9
0.435 0.39399999 0.36899999 8
0.43599999 0.398 0.34799999 9
0.43200001 0.39899999 0.32600001 10
0.41499999 0.40200001 0.32100001 11
0.41 0.39899999 0.38299999 6
0.40599999 0.40599999 0.34 8
0.38999999 0.40200001 0.35299999 9
0.38800001 0.414 0.317 10
0.39199999 0.41499999 0.382 9
0.391 0.42199999 0.36300001 8
0.38699999 0.42399999 0.34099999 9
0.36399999 0.42699999 0.31400001 10
0.366 0.43099999 0.35699999 9
0.366 0.44 0.34099999 9
0.34 0.44 0.31200001 10
0.347 0.44800001 0.35800001 8
0.34400001 0.45500001 0.34 8
0.31900001 0.456 0.31400001 10
0.315 0.44499999 0.345 8
0.31900001 0.46399999 0.33700001 8
0.287 0.45699999 0.30599999 9
0.30199999 0.47 0.354 9
0.29699999 0.47799999 0.33700001 8
0.26499999 0.47 0.30700001 9
0.296 0.484 0.37799999 9
0.28400001 0.48699999 0.35699999 7
0.27000001 0.48300001 0.333 7
0.236 0.46900001 0.301 9
0.27200001 0.49200001 0.37400001 9
0.25999999 0.495 0.35499999 7
0.243 0.486 0.32800001 7
0.213 0.479 0.30199999 8
0.25099999 0.50300002 0.37400001 9
0.221 0.498 0.329 7
0.222 0.5 0.347 8
0.22400001 0.5 0.36399999 5
0.204 0.51099998 0.36500001 4
0.89499998 -0.16599999 0.79799998 9
0.90499997 -0.148 0.80500001 3
0.977 -0.178 0.815 10
0.94400001 -0.114 0.838 6
0.94300002 -0.15099999 0.78500003 6
0.926 -0.092 0.82300001 0
0.96600002 -0.133 0.80199999 3
0.949 -0.109 0.787 7
0.99900001 -0.148 0.77700001 6
0.73500001 0.124 0.579 0
0.66600001 0.115 0.48800001 4
0.64600003 0.12800001 0.47600001 9
0.63499999 0.141 0.47 13
0.616 0.162 0.49599999 0
0.62199998 0.154 0.46399999 6
0.59899998 0.17200001 0.486 1
0.61500001 0.167 0.46200001 7
0.58700001 0.183 0.47999999 2
0.59100002 0.176 0.447 11
0.58099997 0.19499999 0.47799999 2
0.59600002 0.192 0.454 12
0.56900001 0.206 0.47299999 1
0.58200002 0.20299999 0.44800001 12
0.56900001 0.221 0.477 0
0.57099998 0.214 0.44299999 11
0.55000001 0.227 0.465 0
0.56300002 0.227 0.442 11
0.551 0.242 0.47099999 0
0.55000001 0.257 0.47600001 0
0.546 0.25 0.43799999 11
0.53200001 0.27500001 0.43799999 11
0.51800001 0.28299999 0.43200001 9
0.50999999 0.29499999 0.43099999 7
0.50700003 0.31 0.43599999 11
0.48300001 0.31 0.421 3
0.48800001 0.33000001 0.433 3
0.47499999 0.338 0.42899999 2
0.76300001 -0.17399999 0.815 11
0.773 -0.15800001 0.82200003 4
0.86900002 -0.15899999 0.92199999 4
0.82499999 -0.175 0.81099999 12
0.90600002 -0.145 0.958 10
0.82999998 -0.15700001 0.81300002 5
0.90600002 -0.125 0.95599997 4
0.93599999 -0.156 0.91299999 4
0.87199998 -0.16500001 0.78899997 13
0.977 -0.14 0.94999999 8
0.912 -0.152 0.82200003 1
0.91900003 -0.11 0.82099998 7
0.78899997 -0.164 0.79400003 13
0.86199999 -0.15899999 0.86400002 1
0.93099999 -0.15000001 0.92799997 11
0.935 -0.12800001 0.92900002 0
0.74699998 -0.17399999 0.80699998 12
0.84299999 -0.185 0.82999998 13
0.76200002 -0.15899999 0.81800002 2
0.81199998 -0.15899999 0.79500002 7
0.852 -0.15800001 0.91100001 1
0.90899998 -0.156 0.88499999 2
0.91399997 -0.149 0.972 10
0.97799999 -0.145 0.949 11
0.91399997 -0.12800001 0.96799999 4
0.866 -0.17299999 0.79299998 12
0.92199999 -0.15899999 0.77600002 14
0.74900001 -0.185 0.82300001 16
0.801 -0.16599999 0.79799998 12
0.86500001 -0.152 0.78799999 3
0.73100001 -0.164 0.79799998 15
0.85000002 -0.15700001 0.84200001 1
0.991 -0.152 0.89899999 1
0.94199997 -0.117 0.78600001 9
0.78899997 -0.16 0.85699999 1
0.94400001 -0.153 0.93099999 7
0.91799998 -0.119 0.82999998 2
0.88300002 -0.16 0.954 7
0.93099999 -0.131 0.91399997 2
0.91100001 -0.126 0.97500002 1
0.97899997 -0.17399999 0.79699999 15
0.95300001 -0.148 0.77100003 6
0.96499997 -0.108 0.773 0
0.662 0.101 0.46000001 4
0.667 0.117 0.46399999 6
0.671 0.134 0.46900001 5
0.65100002 0.115 0.48199999 3
0.671 0.15000001 0.47 5
0.67000002 0.17900001 0.44600001 4
0.63999999 0.12800001 0.47499999 7
0.64899999 0.16 0.45699999 4
0.63700002 0.18700001 0.42699999 4
0.62599999 0.139 0.465 8
0.64300001 0.175 0.45500001 4
0.60600001 0.193 0.40900001 10
0.611 0.15000001 0.456 7
0.60299999 0.17900001 0.42899999 9
0.60799998 0.20900001 0.41299999 12
0.60699999 0.164 0.45500001 7
0.597 0.191 0.42699999 10
0.60100001 0.223 0.412 12
0.63300002 0.15000001 0.498 3
0.59799999 0.176 0.44999999 7
0.58899999 0.204 0.42399999 10
0.57300001 0.228 0.39700001 10
0.60799998 0.15800001 0.479 4
0.58999997 0.18799999 0.44600001 9
0.579 0.21600001 0.41999999 10
0.56300002 0.23899999 0.39300001 12
0.60299999 0.171 0.477 6
0.58600003 0.20100001 0.44600001 9
0.56599998 0.226 0.414 9
0.55599999 0.25099999 0.39199999 12
0.58600003 0.18000001 0.465 8
0.58200002 0.215 0.44499999 9
0.55900002 0.23800001 0.412 9
0.546 0.26199999 0.38999999 11
0.58200002 0.193 0.46399999 10
0.56699997 0.223 0.43599999 9
0.55800003 0.252 0.41499999 10
0.53899997 0.27399999 0.389 11
0.57200003 0.204 0.458 8
0.56800002 0.23899999 0.44 9
0.542 0.25999999 0.40700001 8
0.53500003 0.28799999 0.391 11
0.57099998 0.21799999 0.45899999 9
0.55699998 0.249 0.435 9
0.54000002 0.27500001 0.41100001 9
0.52499998 0.29899999 0.389 11
0.56300002 0.229 0.45500001 11
0.54100001 0.257 0.426 8
0.53299999 0.287 0.41 9
0.51300001 0.308 0.38499999 11
0.53500003 0.26899999 0.426 11
0.54100001 0.249 0.44299999 11
0.52999997 0.28200001 0.426 8
0.51599997 0.308 0.40599999 9
0.49200001 0.32699999 0.38 11
0.54000002 0.26300001 0.44600001 9
0.523 0.29300001 0.42500001 9
0.50700003 0.31900001 0.40400001 9
0.53200001 0.27399999 0.44299999 11
0.51200002 0.30199999 0.41999999 9
0.46799999 0.34299999 0.375 10
0.523 0.285 0.43900001 6
0.50199997 0.31200001 0.417 8
0.48800001 0.33899999 0.40099999 8
0.46799999 0.36000001 0.38100001 11
0.514 0.29499999 0.435 5
0.48500001 0.317 0.40799999 7
0.447 0.36000001 0.37 10
0.484 0.33199999 0.412 10
0.465 0.35499999 0.39399999 9
0.48800001 0.31099999 0.42199999 10
0.43000001 0.38 0.37099999 10
0.49200001 0.329 0.43099999 5
0.46700001 0.352 0.40900001 8
0.44600001 0.375 0.391 7
0.42199999 0.391 0.37200001 10
0.479 0.336 0.42399999 7
0.45500001 0.36000001 0.405 4
0.40900001 0.39700001 0.368 10
0.449 0.37200001 0.40599999 8
0.42399999 0.38999999 0.38600001 6
0.40200001 0.40900001 0.37099999 10
0.43700001 0.37900001 0.40200001 3
0.412 0.39700001 0.38299999 5
0.39300001 0.41800001 0.37099999 10
0.45899999 0.37099999 0.42300001 0
0.40400001 0.40799999 0.38499999 9
0.442 0.375 0.414 1
0.39300001 0.414 0.382 9
0.37200001 0.43399999 0.37099999 10
0.40900001 0.40700001 0.398 2
0.38 0.419 0.37799999 4
0.38999999 0.40599999 0.38800001 3
0.34900001 0.447 0.368 10
0.37 0.42199999 0.38499999 0
0.32699999 0.46000001 0.36700001 10
0.317 0.46700001 0.36700001 10
0.30700001 0.47499999 0.36899999 10
0.31799999 0.465 0.375 5
0.29800001 0.48500001 0.37099999 10
0.28099999 0.48300001 0.36500001 10
0.29899999 0.48300001 0.37799999 9
0.257 0.49000001 0.36199999 9
0.273 0.48899999 0.37200001 9
0.28799999 0.48500001 0.38 8
0.236 0.50300002 0.36399999 9
0.24699999 0.49399999 0.366 9
0.26199999 0.491 0.373 8
0.237 0.50199997 0.368 5
0.215 0.51800001 0.368 8
0.28200001 0.49399999 0.384 10
0.23800001 0.49900001 0.36899999 6
0.21600001 0.51800001 0.37200001 5
0.25600001 0.50099999 0.377 9
0.243 0.50400001 0.37400001 9
0.21600001 0.51300001 0.37099999 5
0.22499999 0.49599999 0.36199999 4
0.2 0.50400001 0.35800001 5
0.47600001 0.40599999 0.289 5
0.53100002 0.34999999 0.32499999 10
0.514 0.37799999 0.31600001 7
0.463 0.414 0.287 8
0.495 0.38299999 0.30899999 9
0.47799999 0.40799999 0.30000001 7
0.46200001 0.43200001 0.29300001 10
0.51200002 0.37099999 0.32100001 10
0.48899999 0.396 0.31 8
0.46900001 0.419 0.30000001 9
0.44100001 0.433 0.28600001 10
0.44999999 0.421 0.294 9
0.48199999 0.384 0.31 11
0.46900001 0.41600001 0.30700001 8
0.41100001 0.442 0.28 11
0.417 0.428 0.285 10
0.46000001 0.40200001 0.30500001 10
0.435 0.42300001 0.296 9
0.41999999 0.45100001 0.29300001 9
0.38699999 0.45699999 0.278 10
0.43099999 0.414 0.296 11
0.41800001 0.44600001 0.29699999 8
0.38699999 0.456 0.28400001 8
0.36199999 0.46900001 0.27500001 10
0.41 0.43099999 0.292 10
0.391 0.45699999 0.29100001 8
0.36300001 0.47 0.28099999 9
0.33199999 0.47400001 0.26899999 10
0.38299999 0.442 0.285 10
0.366 0.47 0.28600001 8
0.33500001 0.477 0.27500001 8
0.28999999 0.45699999 0.252 9
0.359 0.45500001 0.28 10
0.333 0.47099999 0.27599999 8
0.29699999 0.46599999 0.26100001 7
0.26699999 0.46700001 0.25099999 9
0.33000001 0.461 0.27200001 10
0.294 0.45899999 0.25999999 7
0.271 0.47299999 0.257 7
0.243 0.47299999 0.249 9
0.292 0.44999999 0.255 9
0.27200001 0.47099999 0.257 8
0.24699999 0.47999999 0.25400001 7
0.215 0.47099999 0.242 7
0.273 0.46700001 0.255 9
0.248 0.47999999 0.255 8
0.22 0.47999999 0.248 7
0.24699999 0.47299999 0.25 9
0.219 0.47600001 0.24600001 6
0.21600001 0.46599999 0.23800001 8
0.625 0.059 0.18700001 11
0.63599998 0.071999997 0.205 10
0.64099997 0.092 0.192 11
0.63499999 0.082000002 0.219 10
0.65700001 0.106 0.212 10
0.64899999 0.125 0.19599999 11
0.64200002 0.089000002 0.235 12
0.66100001 0.116 0.228 9
0.66299999 0.138 0.215 10
0.65600002 0.15899999 0.2 12
0.64499998 0.12800001 0.223 11
0.65100002 0.12 0.23800001 11
0.64600003 0.14399999 0.22400001 3
0.27900001 0.447 0.15899999 8
0.27599999 0.44600001 0.15899999 7
0.25999999 0.46399999 0.161 8
0.27599999 0.44600001 0.15899999 7
0.26100001 0.46799999 0.162 6
0.241 0.48100001 0.163 8
0.27599999 0.44499999 0.156 8
0.26199999 0.47099999 0.162 7
0.242 0.486 0.164 7
0.215 0.48300001 0.16 8
0.25999999 0.465 0.15700001 8
0.242 0.486 0.163 7
0.21600001 0.48899999 0.161 7
0.23899999 0.47799999 0.156 8
0.214 0.48500001 0.15800001 7
0.213 0.48100001 0.152 8
0.61199999 -0.0049999999 0.092 10
0.61500001 0.012 0.107 9
0.61900002 0.024 0.093000002 10
0.60799998 0.015 0.12 9
0.61299998 0.015 0.134 10
0.60900003 0.041000001 0.106 9
0.62199998 0.054000001 0.093999997 10
0.61400002 0.043000001 0.12 9
0.61799997 0.041999999 0.134 10
0.62300003 0.071000002 0.108 9
0.63 0.085000001 0.094999999 10
0.62199998 0.071999997 0.121 9
0.62900001 0.071000002 0.13600001 11
0.63099998 0.102 0.109 10
0.63499999 0.117 0.097000003 10
0.62800002 0.101 0.122 10
0.63200003 0.1 0.13600001 11
0.639 0.134 0.111 10
0.64200002 0.15099999 0.098999999 11
0.634 0.132 0.123 10
0.63999999 0.13 0.13699999 11
0.64600003 0.167 0.113 10
0.65100002 0.186 0.102 11
0.64399999 0.16500001 0.126 10
0.64899999 0.162 0.138 12
0.65899998 0.204 0.117 10
0.653 0.221 0.104 9
0.65700001 0.17900001 0.14 11
0.65700001 0.2 0.12800001 9
0.65499997 0.20999999 0.139 12
0.667 0.237 0.131 8
0.662 0.245 0.141 4
0.27000001 0.43399999 0.081 7
0.26699999 0.43700001 0.081 6
0.25999999 0.465 0.083999999 7
0.271 0.426 0.079999998 6
0.25600001 0.465 0.083999999 7
0.23999999 0.47999999 0.086000003 7
0.27399999 0.435 0.079000004 7
0.266 0.46399999 0.083999999 6
0.234 0.47600001 0.083999999 7
0.213 0.48300001 0.085000001 7
0.266 0.46799999 0.081 7
0.24600001 0.479 0.083999999 6
0.20999999 0.484 0.082999997 7
0.244 0.47999999 0.079999998 7
0.219 0.47999999 0.081 6
0.22 0.48699999 0.077 7
