# .PCD v0.7 - Point Cloud Data file format
VERSION 0.7
FIELDS x y z intensity
SIZE 4 4 4 4
TYPE F F F F
COUNT 1 1 1 1
WIDTH 216
HEIGHT 1
VIEWPOINT 0 0 0 1 0 0 0
POINTS 216
DATA ascii
0.77700001 0.030999999 0.086000003 15
0.78100002 0.050000001 0.086000003 15
0.787 0.055 0.106 13
0.79400003 0.07 0.088 14
0.77399999 0.057999998 0.122 12
0.79799998 0.074000001 0.107 12
0.792 0.089000002 0.088 13
0.80199999 0.061999999 0.14399999 14
0.80500001 0.079000004 0.126 12
0.80199999 0.093999997 0.107 12
0.80000001 0.109 0.089000002 14
0.801 0.079000004 0.14300001 14
0.80800003 0.097000003 0.126 12
0.80699998 0.114 0.108 12
0.80400002 0.12899999 0.090000004 14
0.81 0.097999997 0.14399999 14
0.80699998 0.116 0.126 12
0.815 0.134 0.109 12
0.80400002 0.149 0.090000004 14
0.81599998 0.117 0.14399999 14
0.815 0.13600001 0.127 12
0.81199998 0.153 0.109 12
0.81300002 0.171 0.092 14
0.82099998 0.13600001 0.14399999 15
0.81900001 0.156 0.127 12
0.81599998 0.17399999 0.11 12
0.81800002 0.193 0.093000002 15
0.82300001 0.155 0.14399999 15
0.82300001 0.176 0.12800001 12
0.81999999 0.19499999 0.111 12
0.82200003 0.215 0.093999997 15
0.824 0.17399999 0.14399999 15
0.82700002 0.197 0.12800001 12
0.82800001 0.21699999 0.112 13
0.82599998 0.237 0.094999999 15
0.82599998 0.193 0.14399999 15
0.83200002 0.21799999 0.12899999 13
0.83700001 0.23999999 0.114 13
0.83600003 0.26199999 0.097000003 15
0.83899999 0.21600001 0.146 15
0.838 0.23999999 0.13 12
0.83399999 0.26100001 0.114 13
0.83499998 0.235 0.145 15
0.83999997 0.26100001 0.131 12
0.824 0.27900001 0.113 3
0.83399999 0.255 0.14399999 17
0.83999997 0.28299999 0.131 12
0.83999997 0.27700001 0.145 18
0.84600002 0.30000001 0.146 5
0.77700001 0.035999998 0.061000001 15
0.77999997 0.046 0.039999999 11
0.778 0.054000001 0.059999999 15
0.78100002 0.064000003 0.039000001 11
0.78500003 0.074000001 0.017999999 13
0.78600001 0.071000002 0.059999999 15
0.78500003 0.082999997 0.039000001 11
0.78799999 0.093000002 0.017999999 13
0.787 0.089000002 0.059 15
0.78500003 0.101 0.039000001 11
0.77700001 0.121 -0.0020000001 15
0.78899997 0.107 0.059 14
0.79100001 0.12 0.039000001 12
0.79100001 0.131 0.017999999 13
0.78899997 0.14300001 -0.0020000001 15
0.79400003 0.126 0.059 14
0.792 0.139 0.037999999 12
0.792 0.15099999 0.017999999 13
0.79299998 0.163 -0.0020000001 15
0.79900002 0.145 0.057999998 14
0.80199999 0.15899999 0.037999999 12
0.80199999 0.17200001 0.017999999 14
0.79500002 0.184 -0.0020000001 15
0.79900002 0.163 0.057999998 14
0.79799998 0.178 0.037999999 12
0.80000001 0.191 0.017999999 14
0.80199999 0.206 -0.0020000001 16
0.80599999 0.183 0.057 14
0.80500001 0.199 0.037999999 12
0.80599999 0.213 0.017999999 14
0.81099999 0.20299999 0.057 14
0.80900002 0.219 0.037999999 12
0.80599999 0.221 0.056000002 16
0.80699998 0.23800001 0.037 0
0.79900002 0.23800001 0.055 13
0.787 0.116 0.0080000004 16
0.792 0.134 0.0080000004 16
0.78500003 0.14399999 -0.015 13
0.796 0.153 0.0070000002 16
0.79100001 0.163 -0.016000001 13
0.792 0.17299999 -0.041000001 13
0.79400003 0.17200001 0.0060000001 16
0.79699999 0.184 -0.017000001 13
0.796 0.191 0.0060000001 16
0.77899998 0.199 -0.017000001 3
0.79500002 0.20900001 0.0049999999 16
0.33700001 0.289 -0.032000002 6
0.78399998 0.12899999 0.0020000001 16
0.792 0.149 0.0020000001 16
0.79000002 0.15800001 -0.024 13
0.792 0.167 0.0020000001 16
0.796 0.178 -0.024 13
0.79100001 0.185 0.0020000001 16
0.78399998 0.19400001 -0.024 4
0.80000001 0.206 0.0020000001 16
0.77200001 0.030999999 0.041999999 14
0.78399998 0.048999999 0.043000001 15
0.787 0.067000002 0.044 15
0.78600001 0.071999997 0.018999999 13
0.787 0.083999999 0.044 15
0.79100001 0.090999998 0.02 13
0.79000002 0.102 0.045000002 16
0.78899997 0.109 0.02 13
0.79100001 0.114 -0.003 13
0.79400003 0.121 0.046 16
0.79699999 0.12800001 0.021 13
0.79699999 0.134 -0.003 13
0.79799998 0.14 0.046999998 16
0.80199999 0.148 0.021 13
0.80000001 0.154 -0.003 13
0.79100001 0.16 -0.028999999 14
0.80199999 0.15899999 0.046999998 15
0.80599999 0.168 0.022 13
0.80400002 0.175 -0.003 14
0.79699999 0.182 -0.028999999 15
0.81400001 0.18000001 0.048999999 16
0.80800003 0.18700001 0.022 14
0.80500001 0.19499999 -0.003 14
0.81300002 0.199 0.048999999 16
0.81300002 0.208 0.023 14
0.80699998 0.21600001 0.048999999 16
0.81599998 0.229 0.023 0
0.79900002 0.233 0.048999999 5
0.78200001 0.027000001 0.090999998 13
0.79500002 0.027000001 0.071999997 12
0.78200001 0.027000001 0.050999999 14
0.80000001 0.046 0.115 14
0.79299998 0.046 0.093000002 12
0.79799998 0.046 0.072999999 12
0.78299999 0.045000002 0.050999999 14
0.80199999 0.064000003 0.116 14
0.79900002 0.064000003 0.093999997 12
0.796 0.064000003 0.072999999 12
0.78899997 0.064999998 0.050999999 14
0.80500001 0.082000002 0.117 14
0.79799998 0.082000002 0.094999999 12
0.80699998 0.083999999 0.074000001 12
0.792 0.083999999 0.052000001 14
0.81400001 0.1 0.12 14
0.80599999 0.102 0.096000001 12
0.80800003 0.103 0.075000003 12
0.79299998 0.104 0.052000001 14
0.81900001 0.119 0.121 14
0.81300002 0.121 0.097999997 12
0.80800003 0.122 0.075000003 12
0.801 0.124 0.052000001 14
0.81999999 0.138 0.123 15
0.81300002 0.14 0.098999999 12
0.80900002 0.142 0.075999998 12
0.80500001 0.145 0.052999999 15
0.82499999 0.15700001 0.125 15
0.81800002 0.16 0.1 12
0.81800002 0.163 0.077 12
0.80599999 0.16500001 0.052999999 15
0.82599998 0.176 0.126 15
0.824 0.18000001 0.102 13
0.81800002 0.183 0.078000002 12
0.81300002 0.18700001 0.054000001 14
0.829 0.19599999 0.127 15
0.83200002 0.20200001 0.104 13
0.82300001 0.204 0.079000004 13
0.81599998 0.20900001 0.055 15
0.833 0.21600001 0.12899999 15
0.83600003 0.223 0.105 12
0.824 0.22499999 0.079999998 12
0.82499999 0.23199999 0.056000002 15
0.838 0.237 0.131 16
0.838 0.244 0.106 13
0.83200002 0.248 0.082000002 13
0.84600002 0.259 0.134 16
0.83999997 0.26499999 0.108 12
0.84299999 0.27900001 0.13500001 17
0.815 0.083999999 0.18000001 15
0.81400001 0.079000004 0.15899999 14
0.83700001 0.114 0.229 17
0.83600003 0.11 0.207 12
0.829 0.104 0.184 13
0.81999999 0.1 0.161 15
0.84399998 0.134 0.233 17
0.83999997 0.13 0.20900001 12
0.829 0.124 0.185 12
0.82099998 0.12 0.162 15
0.84799999 0.153 0.235 17
0.84100002 0.149 0.20999999 12
0.84100002 0.146 0.189 13
0.83200002 0.142 0.16500001 15
0.84799999 0.17200001 0.237 17
0.84500003 0.169 0.213 12
0.84299999 0.16599999 0.19 13
0.83099997 0.163 0.16599999 15
0.84899998 0.191 0.23899999 15
0.847 0.19 0.215 12
0.83999997 0.186 0.191 13
0.83600003 0.185 0.168 15
0.85600001 0.212 0.219 12
0.84500003 0.208 0.193 13
0.84299999 0.207 0.17 15
0.84799999 0.23 0.219 7
0.84799999 0.23 0.19599999 13
0.85000002 0.23100001 0.17299999 16
0.85500002 0.25299999 0.199 12
0.84899998 0.25299999 0.17399999 16
0.847 0.27200001 0.199 0
0.85799998 0.278 0.177 16
0.85600001 0.30000001 0.17900001 3
0.85000002 0.138 0.26800001 18
0.83700001 0.156 0.26499999 14
