# .PCD v0.7 - Point Cloud Data file format
VERSION 0.7
FIELDS x y z intensity
SIZE 4 4 4 4
TYPE F F F F
COUNT 1 1 1 1
WIDTH 1889
HEIGHT 1
VIEWPOINT 0 0 0 1 0 0 0
POINTS 1889
DATA ascii
0.53500003 -0.47099999 0.49000001 11
0.53899997 -0.46599999 0.45899999 13
0.53100002 -0.46700001 0.55400002 13
0.54500002 -0.46599999 0.52600002 10
0.55400002 -0.465 0.49700001 10
0.56900001 -0.46900001 0.47499999 13
0.55599999 -0.46900001 0.56999999 12
0.56800002 -0.465 0.537 10
0.57800001 -0.46399999 0.509 9
0.59399998 -0.46599999 0.48500001 12
0.57599998 -0.46599999 0.57999998 12
0.59200001 -0.46399999 0.55000001 9
0.60600001 -0.46399999 0.523 9
0.61699998 -0.461 0.49399999 12
0.59500003 -0.461 0.58899999 11
0.616 -0.461 0.56199998 9
0.63200003 -0.461 0.53500003 9
0.64700001 -0.46000001 0.50800002 11
0.62400001 -0.463 0.60799998 10
0.64399999 -0.46000001 0.57800001 9
0.66299999 -0.461 0.55199999 9
0.68599999 -0.463 0.528 11
0.65399998 -0.46399999 0.62699997 10
0.68099999 -0.465 0.60100001 9
0.69700003 -0.461 0.56999999 9
0.71499997 -0.458 0.54100001 10
0.68000001 -0.46200001 0.64300001 10
0.70999998 -0.46200001 0.61699998 10
0.73000002 -0.45899999 0.58700001 9
0.75400001 -0.45899999 0.56099999 10
0.71200001 -0.463 0.66399997 10
0.73799998 -0.458 0.63200003 9
0.76999998 -0.46000001 0.61000001 9
0.79299998 -0.45699999 0.58099997 10
0.74800003 -0.46399999 0.68699998 8
0.77899998 -0.46000001 0.65799999 7
0.81300002 -0.461 0.63499999 8
0.84200001 -0.45899999 0.60799998 8
0.778 -0.461 0.70599997 8
0.81900001 -0.45899999 0.68199998 8
0.852 -0.45699999 0.65600002 8
0.88499999 -0.45500001 0.63 8
0.81599998 -0.461 0.73000002 8
0.85500002 -0.456 0.70300001 8
0.90100002 -0.458 0.685 8
0.93199998 -0.45199999 0.65399998 9
0.85299999 -0.458 0.75400001 9
0.89700001 -0.45300001 0.72799999 8
0.94300002 -0.45199999 0.70700002 8
0.991 -0.45100001 0.68699998 9
0.89200002 -0.456 0.77899998 9
0.94099998 -0.44999999 0.755 8
0.99699998 -0.45100001 0.73900002 8
1.051 -0.449 0.71899998 9
0.93900001 -0.456 0.81099999 9
0.99599999 -0.44999999 0.79000002 8
1.0599999 -0.44999999 0.77700001 9
1.118 -0.44600001 0.75700003 9
0.99000001 -0.45500001 0.84600002 9
1.056 -0.449 0.829 8
1.118 -0.44499999 0.81099999 8
1.1900001 -0.442 0.79699999 9
1.029 -0.447 0.87 12
1.103 -0.44100001 0.85699999 11
1.177 -0.43700001 0.84500003 12
1.256 -0.433 0.833 13
1.038 -0.426 0.86900002 12
1.112 -0.417 0.85600001 11
1.1849999 -0.41 0.84200001 11
1.2640001 -0.403 0.83099997 57
1.044 -0.403 0.86500001 12
1.122 -0.39199999 0.85500002 11
1.196 -0.38299999 0.84299999 11
1.274 -0.373 0.82999998 12
1.056 -0.382 0.86799997 12
1.131 -0.368 0.85500002 11
1.202 -0.35499999 0.83999997 11
1.286 -0.34400001 0.83099997 55
1.061 -0.359 0.86400002 12
1.137 -0.34299999 0.85299999 11
1.2079999 -0.32699999 0.83700001 11
1.2920001 -0.31299999 0.829 12
1.066 -0.336 0.861 12
1.143 -0.317 0.85000002 11
1.2079999 -0.29699999 0.83099997 11
1.29 -0.28 0.82200003 11
1.0700001 -0.31299999 0.85699999 12
1.152 -0.292 0.85100001 7
1.227 -0.273 0.83899999 0
1.2970001 -0.249 0.82200003 58
1.0650001 -0.287 0.847 1
1.152 -0.266 0.84500003 9
1.23 -0.244 0.83600003 61
1.3 -0.21799999 0.81900001 14
1.089 -0.26899999 0.86000001 11
1.161 -0.241 0.847 11
1.227 -0.214 0.829 11
1.3099999 -0.18799999 0.82200003 12
1.096 -0.24600001 0.85900003 12
1.1619999 -0.215 0.84200001 11
1.229 -0.186 0.82700002 11
1.186 -0.142 0.741 47
1.092 -0.221 0.85100001 12
1.1619999 -0.18799999 0.838 11
1.122 -0.14300001 0.75099999 7
1.348 -0.12899999 0.83899999 0
1.101 -0.199 0.85299999 12
1.053 -0.147 0.75599998 9
1.268 -0.133 0.84600002 0
2.9219999 -0.20999999 1.814 94
0.99400002 -0.15800001 0.76599997 15
1.1799999 -0.138 0.84299999 1
2.7579999 -0.226 1.834 96
2.927 -0.141 1.813 98
1.049 -0.14399999 0.80500001 1
2.6059999 -0.24699999 1.855 98
2.767 -0.163 1.835 94
2.9260001 -0.071999997 1.8099999 85
2.4649999 -0.28600001 1.881 17
2.615 -0.19 1.855 103
2.7709999 -0.098999999 1.8329999 89
2.9319999 -0.003 1.812 96
2.4690001 -0.233 1.877 96
2.619 -0.132 1.852 93
2.7750001 -0.035999998 1.832 92
2.9330001 0.064999998 1.812 87
2.4760001 -0.18099999 1.874 94
2.622 -0.074000001 1.85 95
2.773 0.026000001 1.829 87
2.9260001 0.134 1.807 85
2.4809999 -0.12800001 1.8710001 96
2.628 -0.016000001 1.851 91
2.7739999 0.090000004 1.829 89
2.9219999 0.20299999 1.806 84
2.4860001 -0.075000003 1.869 99
2.6300001 0.041000001 1.849 85
2.773 0.153 1.827 84
2.9189999 0.27200001 1.807 92
2.487 -0.021 1.865 89
2.6289999 0.1 1.847 89
2.7709999 0.21699999 1.827 85
2.9100001 0.34 1.8049999 85
2.4890001 0.030999999 1.862 92
2.6329999 0.15800001 1.848 92
2.7679999 0.28099999 1.827 88
2.9059999 0.40900001 1.807 94
2.4979999 0.085000001 1.8660001 87
2.6300001 0.21699999 1.846 93
2.763 0.34400001 1.827 81
2.9000001 0.47799999 1.809 89
2.5 0.139 1.864 86
2.6259999 0.27500001 1.844 92
2.7590001 0.40799999 1.827 87
2.888 0.546 1.809 87
2.503 0.19400001 1.865 90
2.6289999 0.33500001 1.847 91
2.7509999 0.47099999 1.827 83
2.875 0.61299998 1.808 89
2.503 0.249 1.863 86
2.628 0.39399999 1.849 84
2.7390001 0.53399998 1.825 76
2.862 0.68099999 1.809 84
2.507 0.30399999 1.865 95
2.6099999 0.45100001 1.84 84
2.7309999 0.597 1.826 92
2.8499999 0.74900001 1.812 95
2.5020001 0.359 1.862 84
2.615 0.51200002 1.847 90
2.7219999 0.66100001 1.8279999 83
2.836 0.81699997 1.814 84
2.5009999 0.41499999 1.863 76
2.609 0.57200003 1.848 88
2.7090001 0.72399998 1.8279999 81
2.8239999 0.88599998 1.819 86
2.494 0.46900001 1.86 79
2.5969999 0.63099998 1.846 85
2.704 0.78899997 1.834 86
2.7850001 0.94499999 1.808 52
2.497 0.52700001 1.865 83
2.596 0.69199997 1.853 76
2.691 0.852 1.837 81
2.6830001 0.98100001 1.756 10
2.494 0.583 1.8660001 86
2.5840001 0.75099999 1.852 73
2.674 0.91399997 1.837 81
2.7620001 1.0829999 1.823 70
2.4849999 0.639 1.864 83
2.572 0.81 1.852 86
2.599 0.95599997 1.798 21
2.7509999 1.153 1.8329999 34
2.4779999 0.69599998 1.865 98
2.5680001 0.87300003 1.86 90
2.5999999 1.024 1.813 26
2.7190001 1.215 1.83 81
2.4719999 0.75400001 1.8660001 84
2.5420001 0.92799997 1.852 69
2.632 1.107 1.85 37
2.6949999 1.28 1.834 83
2.4619999 0.81099999 1.8660001 82
2.441 0.954 1.79 12
2.6059999 1.1670001 1.849 80
2.668 1.345 1.837 82
2.4549999 0.86900002 1.869 83
2.527 1.053 1.8660001 29
2.579 1.226 1.847 74
2.641 1.408 1.84 83
2.438 0.92400002 1.8660001 66
2.506 1.1109999 1.865 85
2.5550001 1.2869999 1.849 73
2.612 1.472 1.8430001 86
2.3610001 0.95499998 1.817 6
2.4820001 1.168 1.863 83
2.5380001 1.352 1.857 74
2.5769999 1.5319999 1.844 83
2.4230001 1.044 1.876 40
2.4660001 1.229 1.867 81
2.5079999 1.41 1.8559999 76
2.5469999 1.595 1.849 78
2.4059999 1.101 1.875 79
2.4449999 1.288 1.869 77
2.4809999 1.47 1.859 76
2.516 1.658 1.855 85
2.3940001 1.161 1.8789999 75
2.425 1.348 1.872 76
2.4519999 1.53 1.862 77
2.4809999 1.7180001 1.858 88
2.3740001 1.2180001 1.8789999 75
2.404 1.409 1.876 78
2.421 1.589 1.864 73
2.444 1.776 1.8609999 83
2.362 1.279 1.885 74
2.375 1.464 1.875 82
2.395 1.651 1.87 77
2.4100001 1.8380001 1.868 84
2.3399999 1.336 1.885 79
2.349 1.523 1.877 78
2.3659999 1.711 1.876 79
2.369 1.895 1.87 86
2.3169999 1.393 1.8839999 78
2.3269999 1.585 1.885 77
2.3299999 1.768 1.877 73
2.3310001 1.954 1.876 101
2.3 1.455 1.89 87
2.296 1.641 1.885 74
2.293 1.824 1.8789999 77
2.289 2.01 1.88 120
2.2739999 1.512 1.89 79
2.2650001 1.698 1.887 77
2.2620001 1.885 1.887 84
2.223 2.0450001 1.865 101
2.2479999 1.569 1.891 79
2.24 1.76 1.8940001 69
2.224 1.9400001 1.89 80
2.1110001 2.0320001 1.8099999 80
2.2249999 1.63 1.896 83
2.204 1.814 1.895 69
2.1889999 2 1.897 86
2.017 2.033 1.771 74
2.1960001 1.686 1.896 77
2.1719999 1.8710001 1.899 77
2.1300001 2.0369999 1.8839999 94
1.924 2.03 1.73 81
2.1700001 1.7460001 1.901 66
2.1440001 1.934 1.908 77
2.0280001 2.03 1.8329999 80
1.834 2.0250001 1.691 92
2.138 1.803 1.902 71
2.105 1.987 1.909 87
1.9349999 2.027 1.789 78
1.756 2.03 1.6619999 27
2.1099999 1.864 1.908 74
2.0480001 2.0239999 1.895 88
1.857 2.036 1.758 27
0 0 0 0
2.079 1.9220001 1.911 70
1.966 2.033 1.857 53
0 0 0 0
0.338 0.42899999 0.338 9
2.0480001 1.983 1.9170001 76
0 0 0 0
0.34900001 0.419 0.347 9
0 0 0 0
2.007 2.0350001 1.916 32
0.35699999 0.40400001 0.352 8
0 0 0 0
0.31299999 0.43599999 0.33399999 9
0 0 0 0
0 0 0 0
0.32100001 0.42300001 0.338 8
0 0 0 0
0.36000001 0.40000001 0.35800001 10
0.34400001 0.42699999 0.35699999 7
0 0 0 0
0.28799999 0.44299999 0.329 10
0 0 0 0
0 0 0 0
0.296 0.43099999 0.33199999 9
0 0 0 0
0.33700001 0.412 0.352 9
0.315 0.43099999 0.34599999 8
0 0 0 0
0.264 0.449 0.324 9
0 0 0 0
0 0 0 0
0.27599999 0.442 0.331 8
0 0 0 0
0.31400001 0.42300001 0.345 10
0.29300001 0.44100001 0.34200001 8
0 0 0 0
0.23999999 0.45500001 0.32100001 9
0 0 0 0
0 0 0 0
0.25299999 0.45100001 0.32800001 8
0 0 0 0
0.289 0.43000001 0.33700001 10
0.27599999 0.461 0.345 8
0 0 0 0
0.22 0.46599999 0.322 9
0 0 0 0
0 0 0 0
0 0 0 0
0 0 0 0
0.27000001 0.44400001 0.33500001 10
0.24600001 0.45699999 0.33199999 7
0 0 0 0
0.19499999 0.46700001 0.317 9
0 0 0 0
0 0 0 0
0.208 0.46399999 0.32100001 7
0 0 0 0
0.244 0.44800001 0.32699999 9
0.228 0.47499999 0.33500001 7
0 0 0 0
0.17299999 0.472 0.315 9
0 0 0 0
0 0 0 0
0.18700001 0.47499999 0.322 8
0 0 0 0
0.22400001 0.463 0.32699999 9
0.199 0.47 0.32300001 7
0 0 0 0
0.152 0.48100001 0.317 9
0 0 0 0
0 0 0 0
0.163 0.47499999 0.31600001 8
0 0 0 0
0.199 0.465 0.31900001 9
0.178 0.479 0.322 7
0 0 0 0
0.12899999 0.48199999 0.31400001 9
0 0 0 0
0 0 0 0
0.14 0.479 0.31400001 8
0 0 0 0
0.177 0.47600001 0.31799999 9
0.155 0.48500001 0.31999999 8
0 0 0 0
0.105 0.47400001 0.30599999 8
0 0 0 0
0 0 0 0
0.118 0.48100001 0.31099999 8
0 0 0 0
0.154 0.48199999 0.31400001 9
0.131 0.48899999 0.317 8
0 0 0 0
0.082000002 0.46799999 0.30000001 8
0 0 0 0
0 0 0 0
0.093000002 0.47 0.30000001 7
0 0 0 0
0.13 0.48500001 0.30899999 9
0.106 0.47999999 0.30599999 6
0 0 0 0
0.061000001 0.46900001 0.29899999 8
0 0 0 0
0 0 0 0
0.07 0.46700001 0.296 7
0 0 0 0
0.101 0.46700001 0.292 7
0.081 0.47400001 0.29800001 6
0 0 0 0
0.039000001 0.46200001 0.294 8
0 0 0 0
0 0 0 0
0.048 0.46399999 0.292 6
0 0 0 0
0.078000002 0.46700001 0.28799999 8
0.059 0.47400001 0.29499999 6
0 0 0 0
0.017999999 0.456 0.28999999 7
0 0 0 0
0 0 0 0
0.027000001 0.45300001 0.28400001 6
0 0 0 0
0.055 0.46599999 0.28200001 8
0.035999998 0.46599999 0.287 6
0 0 0 0
-0.001 0.44800001 0.285 7
0 0 0 0
0 0 0 0
0.0060000001 0.44400001 0.27700001 6
0 0 0 0
0.033 0.46399999 0.278 7
0.014 0.456 0.27900001 6
0 0 0 0
-0.02 0.45100001 0.28799999 7
0 0 0 0
0 0 0 0
-0.013 0.442 0.27599999 6
0 0 0 0
0.0099999998 0.45899999 0.273 7
0 0 0 0
0 0 0 0
-0.039999999 0.44499999 0.28600001 6
0 0 0 0
0 0 0 0
-0.033 0.44800001 0.28 6
0 0 0 0
-0.011 0.44999999 0.26499999 7
-0.027000001 0.447 0.271 5
0 0 0 0
-0.061000001 0.46000001 0.29699999 8
0 0 0 0
0 0 0 0
-0.055 0.46000001 0.289 6
0 0 0 0
-0.032000002 0.44499999 0.26100001 7
-0.050000001 0.463 0.28099999 6
0 0 0 0
-0.079999998 0.44800001 0.292 7
0 0 0 0
0 0 0 0
-0.075999998 0.45899999 0.289 6
0 0 0 0
-0.056000002 0.458 0.26800001 7
-0.071000002 0.46000001 0.28 6
0 0 0 0
-0.105 0.472 0.31 7
0 0 0 0
0 0 0 0
-0.1 0.47099999 0.29899999 7
0 0 0 0
-0.077 0.45100001 0.264 7
-0.097999997 0.48199999 0.29499999 6
0 0 0 0
-0.126 0.46700001 0.31099999 8
0 0 0 0
0 0 0 0
-0.122 0.46799999 0.30000001 7
0 0 0 0
-0.103 0.465 0.273 7
-0.121 0.479 0.29499999 6
0 0 0 0
-0.149 0.47 0.317 9
0 0 0 0
0 0 0 0
-0.146 0.47 0.30500001 7
0 0 0 0
-0.12899999 0.472 0.27900001 8
-0.14300001 0.47299999 0.294 6
0 0 0 0
-0.17299999 0.47400001 0.32499999 9
0 0 0 0
0 0 0 0
-0.17 0.472 0.31 7
0 0 0 0
-0.15099999 0.465 0.27700001 8
-0.171 0.48199999 0.303 6
0 0 0 0
-0.193 0.46599999 0.32600001 9
0 0 0 0
0 0 0 0
-0.197 0.479 0.31999999 8
0 0 0 0
-0.18099999 0.477 0.287 7
-0.19499999 0.479 0.30599999 6
0 0 0 0
-0.226 0.486 0.34599999 9
0 0 0 0
0 0 0 0
-0.228 0.49200001 0.33500001 8
0 0 0 0
-0.20900001 0.47799999 0.292 9
-0.234 0.50599998 0.32800001 7
0 0 0 0
-1.075 2.0669999 1.507 3
0 0 0 0
0 0 0 0
-0.235 0.45300001 0.31400001 7
-1.0880001 1.9859999 1.465 42
-0.234 0.47099999 0.292 8
-0.23800001 0.45699999 0.30199999 6
-1.0930001 1.989 1.397 26
-1.09 1.893 1.414 40
0 0 0 0
0 0 0 0
-1.096 1.8940001 1.346 41
-1.147 1.897 1.436 151
-0.28600001 0.51300001 0.32499999 10
-0.30399999 0.52200001 0.35299999 2
-1.159 1.903 1.37 152
-1.26 1.9859999 1.524 88
0 0 0 0
-1.199 1.952 1.337 14
-1.274 1.989 1.451 42
-1.275 1.9170001 1.492 71
-1.268 2.03 1.317 14
-1.281 1.979 1.373 71
-1.2920001 1.921 1.4220001 57
-1.268 1.821 1.438 64
-1.2819999 1.946 1.279 60
-1.307 1.919 1.35 59
-1.27 1.8 1.352 43
-1.267 1.739 1.395 43
-1.325 1.909 1.273 62
-1.288 1.8 1.285 58
-1.276 1.725 1.316 46
-1.2640001 1.659 1.353 54
-1.324 1.811 1.225 64
-1.286 1.712 1.2410001 58
-1.284 1.6569999 1.284 67
-1.267 1.591 1.319 60
-1.302 1.693 1.164 73
-1.307 1.6569999 1.221 75
-1.277 1.574 1.2410001 50
-1.234 1.484 1.252 49
-1.334 1.65 1.154 73
-1.268 1.533 1.15 62
-1.257 1.48 1.188 46
-1.281 1.475 1.267 57
-1.266 1.49 1.0599999 60
-1.281 1.477 1.128 49
-1.2970001 1.459 1.194 49
-1.26 1.39 1.217 71
-1.314 1.473 1.068 59
-1.309 1.439 1.1210001 47
-1.249 1.344 1.1210001 52
-1.257 1.329 1.186 74
-1.268 1.353 1.001 62
-1.268 1.331 1.057 60
-1.284 1.321 1.124 54
-1.2869999 1.303 1.188 61
-1.299 1.321 0.99800003 67
-1.309 1.312 1.064 59
-1.242 1.222 1.063 46
-1.247 1.21 1.127 62
-1.2640001 1.224 0.94499999 55
-1.26 1.204 0.99900001 52
-1.281 1.205 1.072 44
-1.286 1.196 1.1390001 69
-1.3 1.199 0.94800001 65
-1.3099999 1.1950001 1.015 54
-1.3200001 1.187 1.081 53
-1.311 1.168 1.1390001 88
-1.348 1.183 0.95999998 66
-1.346 1.1720001 1.021 62
-1.322 1.137 1.061 85
-1.2309999 1.051 1.049 47
-1.273 1.064 0.88599998 58
-1.256 1.043 0.93199998 61
-1.2539999 1.031 0.98699999 52
-1.2539999 1.025 1.05 56
-1.294 1.03 0.88200003 72
-1.298 1.027 0.94400001 58
-1.291 1.013 0.99699998 59
-1.2869999 1.007 1.059 77
-1.335 1.01 0.89099997 67
-1.3279999 1.002 0.94700003 69
-1.318 0.98699999 1 69
-1.3099999 0.98000002 1.0599999 75
-1.36 0.97799999 0.88999999 75
-1.304 0.93699998 0.91299999 46
-1.28 0.91600001 0.95499998 47
-1.2690001 0.90799999 1.01 48
-1.301 0.889 0.83600003 51
-1.2869999 0.88 0.88499999 57
-1.277 0.87099999 0.93699998 53
-1.261 0.86299998 0.98900002 62
-1.261 0.81699997 0.79500002 69
-1.24 0.80599999 0.83899999 65
-1.229 0.79799998 0.88700002 67
-1.22 0.79699999 0.94199997 64
-1.2819999 0.78799999 0.79500002 74
-1.272 0.78500003 0.84600002 73
-1.2690001 0.78500003 0.903 64
-1.257 0.78399998 0.958 59
-1.268 0.73699999 0.77399999 53
-1.267 0.741 0.82999998 45
-1.2539999 0.73699999 0.87900001 43
-1.244 0.73900002 0.935 44
-1.311 0.72000003 0.78799999 50
-1.3049999 0.72399998 0.84299999 40
-1.295 0.72299999 0.89499998 45
-1.2819999 0.72500002 0.95099998 48
-1.364 0.70700002 0.80900002 71
-1.349 0.70700002 0.86000001 67
-1.345 0.71200001 0.91799998 55
-1.33 0.71499997 0.97399998 56
-1.29 0.63 0.755 66
-1.281 0.634 0.80599999 55
-1.284 0.64300001 0.866 59
-1.306 0.667 0.94499999 77
-1.298 0.59500003 0.74900001 47
-1.298 0.60500002 0.80599999 50
-1.284 0.60799998 0.85500002 52
-1.263 0.611 0.90399998 62
-1.375 0.59100002 0.78500003 67
-1.36 0.59600002 0.83499998 60
-1.351 0.60299999 0.88999999 54
-1.3279999 0.60799998 0.94 44
-1.3890001 0.55699998 0.78399998 66
-1.3710001 0.56300002 0.833 65
-1.359 0.57099998 0.88599998 62
-1.353 0.58499998 0.94800001 63
-1.387 0.51800001 0.77399999 69
-1.376 0.52899998 0.82700002 59
-1.365 0.53799999 0.88099998 63
-1.3609999 0.55500001 0.94400001 56
-1.3890001 0.48100001 0.76800001 68
-1.377 0.49200001 0.81999999 61
-1.368 0.50400001 0.875 67
-1.36 0.51999998 0.93400002 69
-1.378 0.44 0.755 63
-1.38 0.458 0.81400001 61
-1.3660001 0.46900001 0.86500001 64
-1.353 0.48500001 0.921 68
-1.2920001 0.37900001 0.70200002 66
-1.2970001 0.39700001 0.759 57
-1.3559999 0.43200001 0.852 47
-1.357 0.454 0.91600001 53
-1.36 0.36300001 0.73299998 15
-1.3150001 0.36899999 0.76300001 9
-1.274 0.375 0.79400003 55
-1.299 0.40400001 0.87 64
-1.375 0.33199999 0.736 62
-1.3660001 0.34999999 0.787 77
-1.342 0.36199999 0.82999998 14
-1.275 0.36700001 0.84799999 52
-1.3660001 0.29499999 0.727 15
-1.3660001 0.31600001 0.78200001 78
-1.3609999 0.33500001 0.83600003 71
-1.336 0.354 0.88200003 15
-1.36 0.25999999 0.72000003 14
-1.3559999 0.28099999 0.77200001 63
-1.344 0.29899999 0.82099998 55
-1.348 0.32600001 0.884 64
-1.284 0.214 0.676 12
-1.346 0.24600001 0.76200002 10
-1.3430001 0.26699999 0.815 12
-1.34 0.294 0.87300003 65
-1.295 0.184 0.67900002 13
-1.28 0.204 0.72100002 65
-1.295 0.228 0.78200001 62
-1.336 0.26300001 0.86500001 68
-1.321 0.155 0.69 14
-1.299 0.176 0.72799999 9
-1.27 0.19499999 0.76300001 11
-1.278 0.223 0.82300001 56
-1.3380001 0.125 0.69700003 14
-1.319 0.148 0.73699999 12
-1.301 0.17 0.778 11
-1.2640001 0.193 0.81099999 11
-1.354 0.093999997 0.70300001 14
-1.335 0.118 0.74299997 12
-1.316 0.142 0.78399998 12
-1.298 0.17 0.829 11
-1.346 0.061000001 0.69800001 14
-1.3430001 0.088 0.74599999 12
-1.331 0.114 0.79100001 12
-1.306 0.14300001 0.82999998 58
-1.334 0.028999999 0.69099998 13
-1.341 0.057 0.74299997 12
-1.329 0.083999999 0.78799999 12
-1.321 0.116 0.83700001 13
-1.2970001 -0.0020000001 0.67199999 13
-1.322 0.025 0.73199999 9
-1.335 0.054000001 0.78899997 12
-1.3279999 0.086999997 0.838 59
-1.3 -0.033 0.67400002 13
-1.2819999 -0.0040000002 0.70899999 11
-1.309 0.024 0.773 8
-1.329 0.059 0.83600003 12
-1.347 -0.066 0.699 13
-1.307 -0.034000002 0.72299999 9
-1.275 -0.0040000002 0.75199997 12
-1.3 0.029999999 0.81599998 40
-1.275 -0.093000002 0.662 13
-1.347 -0.066 0.745 12
-1.302 -0.033 0.76700002 9
-1.27 0.001 0.796 12
-1.266 -0.122 0.65899998 11
-1.26 -0.090999998 0.69700003 11
-1.335 -0.064000003 0.78600001 12
-1.285 -0.025 0.80400002 9
-1.321 -0.16 0.68900001 13
-1.262 -0.121 0.69999999 9
-1.266 -0.089000002 0.745 11
-1.322 -0.054000001 0.82599998 11
-1.332 -0.193 0.69700003 14
-1.322 -0.15700001 0.73400003 10
-1.255 -0.117 0.73900002 10
-1.286 -0.081 0.80299997 76
-1.243 -0.20999999 0.653 13
-1.332 -0.19 0.741 13
-1.313 -0.152 0.77399999 10
-1.239 -0.105 0.773 12
-1.2410001 -0.23999999 0.65499997 12
-1.247 -0.207 0.69599998 10
-1.322 -0.183 0.78100002 12
-1.289 -0.13699999 0.80400002 9
-1.108 -0.241 0.588 4
-1.228 -0.233 0.68800002 11
-1.2819999 -0.206 0.759 11
-1.314 -0.169 0.81999999 12
-0.94099998 -0.228 0.50199997 2
-1.1109999 -0.237 0.625 6
-1.223 -0.22499999 0.72500002 11
-1.306 -0.197 0.81599998 61
-0.89999998 -0.241 0.48300001 7
-0.97799999 -0.23199999 0.55299997 1
-1.1720001 -0.243 0.69700003 9
-1.222 -0.211 0.76499999 11
-1.073 -0.315 0.58099997 8
-0.84799999 -0.222 0.48199999 3
-1.013 -0.233 0.60500002 7
-1.216 -0.23800001 0.76200002 11
-1.077 -0.34299999 0.58700001 7
-0.81900001 -0.235 0.46799999 5
-0.89499998 -0.228 0.537 1
-1.094 -0.23899999 0.68800002 17
-1.061 -0.366 0.583 6
-0.97500002 -0.30399999 0.56099999 6
-0.79000002 -0.22 0.47600001 2
-0.99000001 -0.23899999 0.62400001 7
-1.052 -0.391 0.583 6
-0.98699999 -0.333 0.57099998 6
-0.759 -0.229 0.45899999 5
-0.84899998 -0.22400001 0.537 2
-1.03 -0.41 0.57599998 6
-0.97600001 -0.354 0.56900001 6
-0.85399997 -0.27900001 0.51999998 6
-0.76300001 -0.219 0.484 2
-1.016 -0.43200001 0.57499999 6
-0.96700001 -0.37599999 0.56900001 6
-0.921 -0.324 0.56400001 6
-0.70300001 -0.219 0.44800001 5
-1.007 -0.456 0.57599998 7
-0.95599997 -0.39700001 0.56699997 6
-0.91100001 -0.34400001 0.56199998 6
-0.73299998 -0.24600001 0.46900001 5
-0.98900002 -0.47600001 0.57200003 7
-0.94099998 -0.41600001 0.56400001 6
-0.89999998 -0.36300001 0.55900002 6
-0.85600001 -0.308 0.551 6
-0.97000003 -0.495 0.56800002 7
-0.92900002 -0.43700001 0.56199998 6
-0.88999999 -0.382 0.55699998 6
-0.85500002 -0.329 0.55299997 6
-0.94199997 -0.50800002 0.55900002 8
-0.91600001 -0.456 0.56 6
-0.88 -0.40099999 0.55500001 6
-0.84600002 -0.34799999 0.551 6
-0.87400001 -0.498 0.52600002 7
-0.90399998 -0.47600001 0.55900002 6
-0.87300003 -0.42199999 0.55599999 6
-0.83899999 -0.366 0.55000001 6
-0.81 -0.48699999 0.49399999 7
-0.89600003 -0.498 0.56 6
-0.861 -0.44 0.55400002 6
-0.83099997 -0.38499999 0.54900002 6
-0.77700001 -0.49200001 0.48100001 7
-0.86400002 -0.50700003 0.54699999 7
-0.85100001 -0.46000001 0.55299997 6
-0.82499999 -0.40400001 0.54900002 6
-0.741 -0.49399999 0.46599999 6
-0.79900002 -0.493 0.51300001 6
-0.83899999 -0.477 0.551 6
-0.815 -0.42199999 0.54699999 6
-0.68699998 -0.47999999 0.43900001 8
-0.75 -0.48699999 0.48899999 6
-0.82300001 -0.49399999 0.54699999 7
-0.80400002 -0.44 0.54500002 6
-0.64999998 -0.47799999 0.42300001 8
-0.72100002 -0.49200001 0.477 6
-0.801 -0.505 0.53899997 7
-0.796 -0.458 0.54400003 6
-0.61699998 -0.47600001 0.40900001 9
-0.671 -0.47999999 0.45100001 7
-0.741 -0.491 0.505 6
-0.787 -0.47600001 0.54299998 6
-0.59100002 -0.47799999 0.40000001 12
-0.63599998 -0.47799999 0.43399999 7
-0.704 -0.48899999 0.486 6
-0.77600002 -0.49399999 0.542 7
-0.56300002 -0.47600001 0.38800001 13
-0.60399997 -0.47499999 0.419 7
-0.66000003 -0.48100001 0.463 7
-0.75400001 -0.50400001 0.53299999 7
-0.53399998 -0.47400001 0.37599999 13
-0.57599998 -0.47499999 0.40700001 7
-0.625 -0.477 0.44499999 7
-0.699 -0.49000001 0.5 6
-0.51099998 -0.47400001 0.368 12
-0.55000001 -0.47400001 0.396 7
-0.59399998 -0.47499999 0.42899999 7
-0.65399998 -0.48100001 0.47400001 7
-0.49200001 -0.47799999 0.36199999 12
-0.52200001 -0.47099999 0.384 7
-0.56400001 -0.472 0.41499999 7
-0.62300003 -0.479 0.45699999 8
-0.46900001 -0.47600001 0.354 12
-0.49900001 -0.472 0.37400001 7
-0.53799999 -0.472 0.403 7
-0.59100002 -0.47600001 0.44100001 8
-0.44499999 -0.47299999 0.34400001 12
-0.48100001 -0.47600001 0.36899999 8
-0.51700002 -0.47400001 0.39399999 7
-0.55800003 -0.47099999 0.42300001 10
-0.43000001 -0.479 0.34099999 11
-0.461 -0.477 0.361 9
-0.491 -0.47099999 0.382 8
-0.537 -0.47400001 0.41299999 10
0 0 0 0
-0.435 -0.47099999 0.34900001 10
-0.47299999 -0.47499999 0.375 10
-0.50999999 -0.47099999 0.39899999 10
-0.38999999 -0.47600001 0.32699999 11
-0.41999999 -0.47600001 0.345 8
-0.454 -0.477 0.368 10
-0.48899999 -0.47299999 0.38999999 11
0 0 0 0
0 0 0 0
-0.43099999 -0.47299999 0.35699999 11
-0.46700001 -0.472 0.37900001 11
-0.359 -0.48199999 0.31999999 10
-0.38600001 -0.479 0.33500001 8
-0.414 -0.47600001 0.352 10
-0.45100001 -0.477 0.37400001 11
0 0 0 0
-0.36399999 -0.47299999 0.32499999 9
-0.39500001 -0.47499999 0.34400001 10
-0.42899999 -0.47499999 0.36399999 11
-0.322 -0.47499999 0.30599999 9
0 0 0 0
-0.37599999 -0.47299999 0.336 10
-0.41 -0.47499999 0.35499999 11
0 0 0 0
-0.32100001 -0.45899999 0.30399999 8
-0.36399999 -0.47999999 0.33399999 9
-0.39399999 -0.477 0.34900001 10
-0.28999999 -0.47099999 0.296 9
0 0 0 0
0 0 0 0
-0.368 -0.46799999 0.33500001 10
0 0 0 0
-0.29100001 -0.45899999 0.296 8
-0.329 -0.477 0.31999999 9
-0.35800001 -0.47600001 0.33399999 10
-0.26300001 -0.47400001 0.29100001 9
0 0 0 0
0 0 0 0
-0.33399999 -0.46599999 0.32100001 10
0 0 0 0
-0.264 -0.46000001 0.28799999 8
-0.29800001 -0.477 0.31 8
-0.322 -0.47099999 0.31799999 9
-0.234 -0.47 0.28299999 9
0 0 0 0
0 0 0 0
0 0 0 0
0 0 0 0
-0.237 -0.46000001 0.28099999 8
-0.26699999 -0.47400001 0.29800001 8
-0.29100001 -0.47099999 0.30599999 9
-0.208 -0.46900001 0.27700001 8
0 0 0 0
0 0 0 0
0 0 0 0
0 0 0 0
-0.212 -0.46200001 0.27599999 7
-0.23800001 -0.472 0.289 7
-0.25999999 -0.46799999 0.294 9
-0.182 -0.46599999 0.271 8
0 0 0 0
0 0 0 0
0 0 0 0
0 0 0 0
-0.18700001 -0.45899999 0.26899999 7
-0.211 -0.46900001 0.28 7
-0.23100001 -0.465 0.28400001 9
-0.16 -0.46799999 0.26800001 8
0 0 0 0
0 0 0 0
0 0 0 0
0 0 0 0
-0.164 -0.46200001 0.266 7
-0.186 -0.46900001 0.27399999 7
-0.204 -0.463 0.27399999 8
-0.138 -0.47 0.26699999 8
0 0 0 0
0 0 0 0
0 0 0 0
0 0 0 0
-0.142 -0.463 0.26300001 7
-0.163 -0.472 0.27000001 7
-0.18099999 -0.46700001 0.27000001 8
-0.115 -0.46900001 0.264 8
0 0 0 0
0 0 0 0
0 0 0 0
0 0 0 0
-0.119 -0.463 0.259 7
-0.13699999 -0.465 0.26100001 6
-0.155 -0.463 0.26100001 8
-0.093999997 -0.47 0.26199999 8
0 0 0 0
0 0 0 0
0 0 0 0
0 0 0 0
-0.097999997 -0.46599999 0.25799999 7
-0.115 -0.46599999 0.257 6
-0.133 -0.46900001 0.259 8
-0.071999997 -0.46799999 0.25999999 7
0 0 0 0
0 0 0 0
0 0 0 0
0 0 0 0
-0.077 -0.465 0.255 7
-0.092 -0.465 0.25299999 6
-0.109 -0.46700001 0.25299999 8
-0.052000001 -0.46900001 0.25999999 7
0 0 0 0
0 0 0 0
0 0 0 0
0 0 0 0
-0.055 -0.45899999 0.25 6
-0.071000002 -0.465 0.25099999 6
-0.086999997 -0.46900001 0.25 8
-0.013 -0.19400001 0.107 3
0 0 0 0
0 0 0 0
0 0 0 0
0 0 0 0
-0.014 -0.185 0.1 2
-0.048999999 -0.461 0.24600001 7
-0.064999998 -0.46799999 0.24600001 7
-0.0040000002 -0.19499999 0.108 3
0 0 0 0
0 0 0 0
0 0 0 0
0 0 0 0
-0.0049999999 -0.185 0.1 2
-0.011 -0.19499999 0.103 2
-0.017999999 -0.205 0.106 6
0.003 -0.19499999 0.108 3
0 0 0 0
0 0 0 0
0 0 0 0
0 0 0 0
0.0020000001 -0.185 0.1 2
-0.003 -0.19499999 0.103 2
-0.0080000004 -0.191 0.097999997 2
0.025 -0.40900001 0.227 1
0 0 0 0
0 0 0 0
0 0 0 0
0 0 0 0
0.024 -0.421 0.227 2
0.0060000001 -0.205 0.107 1
0 -0.191 0.097000003 2
0.052000001 -0.49900001 0.27900001 9
0 0 0 0
0 0 0 0
0 0 0 0
0 0 0 0
0.050000001 -0.493 0.26699999 8
0.035999998 -0.477 0.25 4
0.018999999 -0.38999999 0.197 1
0.072999999 -0.49599999 0.28 9
0 0 0 0
0 0 0 0
0 0 0 0
0 0 0 0
0.071999997 -0.491 0.26699999 8
0.059999999 -0.495 0.25999999 7
0.048 -0.49599999 0.25 8
0.094999999 -0.49399999 0.28099999 9
0 0 0 0
0 0 0 0
0 0 0 0
0 0 0 0
0.093000002 -0.48699999 0.26699999 8
0.082999997 -0.493 0.259 7
0.071000002 -0.49399999 0.249 8
0.115 -0.48899999 0.28099999 9
0 0 0 0
0 0 0 0
0 0 0 0
0 0 0 0
0.116 -0.49000001 0.27000001 8
0.106 -0.493 0.25999999 7
0.096000001 -0.49599999 0.25099999 9
0.138 -0.491 0.28600001 9
0 0 0 0
0 0 0 0
0 0 0 0
0 0 0 0
0.138 -0.486 0.271 8
0.13 -0.493 0.26199999 8
0.119 -0.49200001 0.249 8
0.16 -0.48800001 0.28799999 9
0 0 0 0
0 0 0 0
0 0 0 0
0 0 0 0
0.16 -0.48100001 0.27200001 8
0.154 -0.493 0.26499999 8
0.14300001 -0.48699999 0.249 8
0.182 -0.486 0.29100001 9
0 0 0 0
0 0 0 0
0 0 0 0
0 0 0 0
0.18099999 -0.47499999 0.27200001 8
0.178 -0.49000001 0.266 8
0.168 -0.486 0.25 9
0.204 -0.48100001 0.294 9
0 0 0 0
0 0 0 0
0 0 0 0
0 0 0 0
0.20900001 -0.48100001 0.28 8
0.204 -0.49000001 0.27000001 8
0.19499999 -0.48899999 0.255 9
0.229 -0.48100001 0.30000001 9
0 0 0 0
0 0 0 0
0 0 0 0
0 0 0 0
0.233 -0.47799999 0.28400001 8
0.227 -0.48300001 0.271 8
0.221 -0.486 0.257 9
0.255 -0.48300001 0.308 10
0 0 0 0
0 0 0 0
0 0 0 0
0 0 0 0
0.25999999 -0.479 0.29100001 9
0.25600001 -0.48500001 0.27700001 8
0.25 -0.48500001 0.26100001 9
0.28 -0.47999999 0.31299999 10
0 0 0 0
0 0 0 0
0 0 0 0
0 0 0 0
0.287 -0.477 0.296 9
0.285 -0.484 0.28299999 8
0.27599999 -0.47799999 0.26199999 9
0.308 -0.48100001 0.322 10
0 0 0 0
0 0 0 0
0 0 0 0
0 0 0 0
0.31299999 -0.47299999 0.301 9
0.31600001 -0.48500001 0.29100001 8
0.308 -0.47999999 0.27000001 10
0.33700001 -0.479 0.33000001 10
0 0 0 0
0 0 0 0
0 0 0 0
0 0 0 0
0.34400001 -0.47299999 0.31 9
0.34900001 -0.48500001 0.29899999 9
0.34 -0.47799999 0.27599999 10
0.37 -0.48199999 0.34200001 10
0 0 0 0
0 0 0 0
0 0 0 0
0 0 0 0
0.37599999 -0.47099999 0.31900001 10
0.38499999 -0.486 0.30899999 9
0.37599999 -0.47799999 0.28400001 11
0.40200001 -0.48100001 0.35299999 11
0 0 0 0
0 0 0 0
0 0 0 0
0.412 -0.472 0.352 12
0 0 0 0
0.419 -0.48199999 0.317 10
0.41100001 -0.47400001 0.292 11
0.435 -0.47799999 0.36300001 11
0.435 -0.477 0.34099999 10
0 0 0 0
0 0 0 0
0.447 -0.47099999 0.36399999 12
0.45100001 -0.47299999 0.34400001 10
0.456 -0.47799999 0.32699999 10
0.45300001 -0.47400001 0.303 12
0.46599999 -0.47099999 0.37200001 12
0 0 0 0
0.47099999 -0.472 0.329 11
0 0 0 0
0.48199999 -0.46700001 0.37599999 13
0.493 -0.47299999 0.359 11
0.49599999 -0.47400001 0.338 11
0.495 -0.47099999 0.315 13
0.50700003 -0.47099999 0.38800001 13
0.51200002 -0.47 0.36500001 11
0.51999998 -0.47499999 0.347 11
0 0 0 0
0.52499998 -0.46799999 0.39399999 14
0.53500003 -0.47 0.373 11
0.54100001 -0.47099999 0.352 11
0.542 -0.46799999 0.329 13
0.54699999 -0.46799999 0.403 13
0.55699998 -0.46799999 0.38100001 11
0.56300002 -0.46900001 0.359 11
0.56999999 -0.46900001 0.338 13
0.574 -0.46900001 0.41499999 14
0.57999998 -0.46599999 0.389 11
0.58600003 -0.465 0.366 11
0.59899998 -0.46900001 0.347 14
0.59600002 -0.46700001 0.42300001 14
0.60699999 -0.46599999 0.40000001 10
0.61199999 -0.463 0.375 11
0.62699997 -0.46700001 0.35600001 14
0.61900002 -0.46399999 0.43200001 13
0.63099998 -0.463 0.40900001 10
0.639 -0.461 0.384 11
0.65100002 -0.46200001 0.36300001 13
0.64499998 -0.463 0.44299999 13
0.65899998 -0.461 0.419 10
0.66600001 -0.458 0.39399999 10
0.68300003 -0.46000001 0.37400001 13
0.67000002 -0.461 0.45300001 13
0.68599999 -0.458 0.42899999 10
0.70200002 -0.45899999 0.40799999 10
0.71200001 -0.456 0.38299999 12
0.69700003 -0.45699999 0.46399999 12
0.71399999 -0.45500001 0.44 9
0.73400003 -0.456 0.41999999 9
0.755 -0.458 0.39899999 11
0.73199999 -0.45899999 0.47999999 11
0.755 -0.458 0.458 10
0.76999998 -0.454 0.433 9
0.792 -0.45500001 0.412 11
0.76300001 -0.456 0.49399999 10
0.78899997 -0.454 0.472 10
0.81400001 -0.45500001 0.45100001 10
0.83399999 -0.45199999 0.42699999 10
0.80400002 -0.458 0.51300001 11
0.829 -0.454 0.48899999 10
0.85500002 -0.45300001 0.46700001 9
0.88 -0.45100001 0.44400001 10
0.84200001 -0.45699999 0.53100002 10
0.87099999 -0.45199999 0.50700003 9
0.90799999 -0.454 0.49000001 8
0.93800002 -0.45199999 0.46700001 8
0.88499999 -0.456 0.55000001 8
0.91900003 -0.45100001 0.528 8
0.95700002 -0.45100001 0.509 8
0.98900002 -0.44800001 0.486 9
0.92799997 -0.45300001 0.56999999 8
0.96200001 -0.44600001 0.546 8
1.008 -0.44800001 0.52999997 8
1.049 -0.44499999 0.509 9
0.97100002 -0.44999999 0.58999997 9
1.0140001 -0.44400001 0.56999999 8
1.064 -0.44299999 0.55299997 9
1.117 -0.44299999 0.53600001 9
1.024 -0.44800001 0.61500001 9
1.082 -0.44499999 0.60100001 8
1.137 -0.44299999 0.58499998 8
1.196 -0.44100001 0.56800002 9
1.081 -0.44600001 0.64200002 9
1.145 -0.442 0.62900001 8
1.2130001 -0.44100001 0.61799997 8
1.28 -0.43799999 0.602 9
1.143 -0.44299999 0.67199999 10
1.22 -0.44 0.66399997 8
1.294 -0.43700001 0.65200001 8
1.374 -0.433 0.63999999 9
1.2130001 -0.44100001 0.70599997 9
1.299 -0.43599999 0.70099998 8
1.386 -0.433 0.69199997 9
1.477 -0.428 0.68199998 42
1.285 -0.43700001 0.741 10
1.386 -0.43099999 0.741 8
1.485 -0.42699999 0.736 42
1.6 -0.42199999 0.73299998 40
1.369 -0.433 0.78299999 10
1.487 -0.42699999 0.78799999 53
1.594 -0.41800001 0.78399998 57
1.693 -0.403 0.76999998 57
1.4299999 -0.419 0.81099999 61
1.517 -0.39899999 0.79799998 55
1.608 -0.38299999 0.78399998 60
1.702 -0.36300001 0.76899999 56
1.438 -0.389 0.80900002 59
1.527 -0.366 0.79699999 58
1.615 -0.345 0.78200001 52
1.707 -0.32100001 0.76700002 51
1.446 -0.35800001 0.80699998 61
1.535 -0.33199999 0.796 60
1.62 -0.30700001 0.77999997 55
1.71 -0.28 0.764 55
1.4529999 -0.32699999 0.80500001 60
1.54 -0.29800001 0.79400003 49
1.625 -0.27000001 0.77899998 38
1.716 -0.23899999 0.76300001 42
1.46 -0.296 0.80400002 59
1.52 -0.259 0.77899998 6
1.632 -0.23199999 0.778 55
1.723 -0.198 0.76300001 55
1.429 -0.25799999 0.78200001 2
1.546 -0.228 0.78799999 60
1.638 -0.19499999 0.77700001 59
1.603 -0.146 0.70700002 137
1.476 -0.234 0.80299997 60
1.552 -0.19400001 0.787 65
1.501 -0.14300001 0.70899999 123
1.6900001 -0.113 0.74299997 5
1.4809999 -0.20299999 0.801 60
1.428 -0.146 0.72100002 116
1.615 -0.117 0.76099998 4
2.3510001 -0.101 1.0319999 100
1.382 -0.15899999 0.74299997 110
1.492 -0.119 0.75 0
3.0739999 -0.15099999 1.444 86
2.365 -0.045000002 1.0369999 150
1.355 -0.126 0.72600001 2
3.0650001 -0.176 1.536 114
3.0769999 -0.081 1.442 87
2.365 0.0099999998 1.036 136
3.0799999 -0.222 1.642 86
3.062 -0.108 1.53 97
3.0739999 -0.0089999996 1.438 76
2.362 0.066 1.034 118
3.0780001 -0.155 1.635 104
3.053 -0.039999999 1.521 97
3.0739999 0.059999999 1.436 72
2.362 0.122 1.035 95
3.0739999 -0.088 1.627 110
3.0469999 0.028000001 1.515 104
3.079 0.131 1.438 81
2.358 0.178 1.034 90
3.0699999 -0.022 1.62 114
3.0469999 0.096000001 1.513 100
3.069 0.20200001 1.433 75
2.372 0.236 1.041 4
3.0669999 0.043000001 1.614 113
3.04 0.163 1.508 92
3.072 0.273 1.4349999 82
3.207 0.396 1.411 99
3.063 0.11 1.608 92
3.0369999 0.23100001 1.505 93
3.073 0.345 1.437 76
3.2060001 0.47400001 1.414 95
3.056 0.176 1.602 104
3.0320001 0.30000001 1.503 96
3.0650001 0.41600001 1.436 76
3.198 0.55000001 1.416 93
3.0550001 0.243 1.598 107
3.027 0.36700001 1.501 86
3.056 0.48699999 1.434 75
3.1889999 0.62599999 1.4170001 90
3.0510001 0.30899999 1.595 105
3.026 0.43700001 1.502 100
3.056 0.55900002 1.438 71
3.1689999 0.70099998 1.415 77
3.0450001 0.375 1.591 106
3.023 0.505 1.502 101
3.0439999 0.63 1.437 77
3.151 0.77499998 1.414 78
3.0439999 0.44299999 1.59 101
3.0220001 0.57499999 1.5039999 82
3.033 0.70099998 1.437 72
3.1400001 0.852 1.418 76
3.039 0.50999999 1.5880001 98
3.0139999 0.64399999 1.5039999 94
3.0220001 0.77200001 1.438 75
3.059 0.90700001 1.39 9
3.0369999 0.579 1.587 107
3.0109999 0.71499997 1.507 92
3.0079999 0.84299999 1.439 83
0 0 0 0
3.0320001 0.64700001 1.587 103
3.0079999 0.78600001 1.51 89
2.993 0.91299999 1.439 62
0.49399999 0.17200001 0.227 9
3.0280001 0.71600002 1.5880001 98
3.007 0.85799998 1.516 86
0 0 0 0
0 0 0 0
3.026 0.78600001 1.59 91
3.007 0.93199998 1.523 80
0.49399999 0.176 0.241 8
0.493 0.198 0.23100001 9
3.0209999 0.85600001 1.591 95
2.961 0.991 1.507 8
0 0 0 0
0 0 0 0
3.027 0.93000001 1.599 89
0 0 0 0
0.48800001 0.199 0.241 8
0.48699999 0.223 0.233 9
3.016 1.001 1.599 60
0.491 0.189 0.25299999 8
0 0 0 0
0 0 0 0
0 0 0 0
0 0 0 0
0.48100001 0.223 0.242 8
0.47799999 0.24699999 0.234 9
0.50300002 0.192 0.26899999 9
0.495 0.21699999 0.25799999 8
0 0 0 0
0 0 0 0
0 0 0 0
0 0 0 0
0.484 0.252 0.248 8
2.9489999 1.7029999 1.483 4
0.493 0.214 0.26699999 9
0.484 0.23899999 0.257 7
2.97 1.636 1.544 85
2.9519999 1.798 1.505 117
2.9979999 1.38 1.631 8
2.9779999 1.5549999 1.595 85
2.9660001 1.724 1.5599999 95
2.925 1.877 1.5140001 150
2.9960001 1.461 1.641 85
2.9779999 1.641 1.61 94
2.9619999 1.8150001 1.5779999 109
2.3640001 1.595 1.243 39
2.9949999 1.545 1.654 104
2.977 1.7309999 1.626 93
2.9579999 1.9069999 1.597 116
2.3729999 1.684 1.268 24
2.99 1.627 1.664 103
2.971 1.819 1.642 106
2.3970001 1.625 1.312 9
2.4030001 1.79 1.307 24
2.9890001 1.715 1.678 103
2.9849999 1.921 1.669 123
2.9230001 2.0810001 1.625 129
2.4849999 1.943 1.377 151
2.993 1.808 1.696 103
2.98 2.0150001 1.687 115
2.7639999 2.0650001 1.5599999 94
2.323 1.905 1.311 45
2.9960001 1.903 1.715 121
2.9300001 2.0799999 1.681 115
2.6059999 2.0420001 1.495 96
2.3770001 2.043 1.369 67
3.0020001 2.0039999 1.737 113
2.7980001 2.0840001 1.628 60
2.372 1.948 1.385 10
2.279 2.053 1.34 81
2.973 2.0829999 1.74 124
2.6170001 2.0439999 1.546 28
2.3659999 2.036 1.4069999 34
2.171 2.049 1.3049999 76
2.822 2.0739999 1.6720001 92
2.52 2.062 1.512 91
2.2780001 2.053 1.381 83
2.066 2.043 1.27 91
2.6689999 2.0569999 1.602 85
2.4030001 2.059 1.466 69
2.171 2.05 1.3430001 79
1.966 2.036 1.238 91
2.5510001 2.0599999 1.553 88
2.289 2.0539999 1.421 78
2.0610001 2.0369999 1.302 88
1.874 2.033 1.21 99
2.4349999 2.059 1.5039999 77
2.177 2.0450001 1.377 71
1.9680001 2.036 1.271 94
1.781 2.0239999 1.181 85
2.3150001 2.05 1.4529999 72
2.076 2.0420001 1.339 78
1.875 2.0309999 1.24 85
1.7 2.0239999 1.159 82
2.207 2.046 1.409 77
1.976 2.0339999 1.301 81
1.788 2.029 1.212 81
1.647 2.0539999 1.155 66
2.1070001 2.0450001 1.368 72
1.881 2.026 1.265 84
1.705 2.027 1.186 82
1.605 2.099 1.16 60
2.0020001 2.0339999 1.324 75
1.798 2.0280001 1.237 82
1.628 2.027 1.163 71
1.564 2.1459999 1.166 64
1.909 2.0309999 1.289 81
1.71 2.0209999 1.205 84
1.58 2.063 1.161 65
1.524 2.1960001 1.175 68
1.8150001 2.023 1.251 87
1.628 2.0150001 1.176 84
1.5470001 2.118 1.171 62
1.482 2.243 1.182 73
1.73 2.02 1.219 81
1.573 2.0420001 1.1670001 68
1.507 2.1659999 1.177 57
1.406 2.2390001 1.163 83
1.653 2.023 1.192 87
1.534 2.089 1.171 68
1.4630001 2.21 1.181 62
1.2410001 2.0799999 1.066 8
1.5779999 2.0239999 1.166 63
1.498 2.142 1.177 58
1.419 2.2539999 1.1849999 66
1.178 2.082 1.054 2
1.541 2.0739999 1.169 69
1.459 2.191 1.183 60
1.2460001 2.0829999 1.079 11
1.137 2.1210001 1.061 31
1.507 2.131 1.176 57
1.42 2.243 1.1900001 67
1.181 2.082 1.063 2
0.995 1.962 0.97100002 30
1.472 2.187 1.183 63
1.318 2.1930001 1.143 17
1.1440001 2.128 1.072 32
0.94599998 1.975 0.96700001 117
1.434 2.2409999 1.189 66
1.181 2.072 1.063 2
0.99599999 1.961 0.97500002 16
0.88499999 1.961 0.95099998 94
1.339 2.2049999 1.147 19
1.147 2.1240001 1.074 28
0.94499999 1.97 0.96799999 125
0.833 1.964 0.94300002 100
1.191 2.069 1.057 2
1.003 1.965 0.97799999 16
0.889 1.967 0.95499998 103
0.78299999 1.969 0.93800002 108
1.154 2.118 1.064 28
0.94999999 1.971 0.96799999 109
0.83499998 1.966 0.94499999 96
0.722 1.943 0.91799998 80
1.0140001 1.969 0.97299999 26
0.89099997 1.9630001 0.95099998 89
0.77999997 1.959 0.93199998 94
0.671 1.939 0.91000003 82
0.96100003 1.977 0.96100003 115
0.83600003 1.962 0.93900001 111
0.72000003 1.937 0.912 77
0.62099999 1.936 0.90200001 82
0.898 1.966 0.94099998 79
0.77899998 1.951 0.92199999 85
0.66900003 1.9349999 0.903 73
0.57200003 1.932 0.89499998 79
0.84100002 1.961 0.92500001 98
0.72100002 1.937 0.90499997 77
0.62 1.936 0.89600003 71
0.52499998 1.931 0.88999999 88
0.78100002 1.944 0.90499997 72
0.671 1.937 0.89600003 72
0.56999999 1.9299999 0.88599998 74
0.47799999 1.929 0.884 84
0.72600001 1.939 0.88999999 74
0.62099999 1.936 0.88599998 74
0.52200001 1.925 0.87800002 88
0 0 0 0
0.67400002 1.938 0.87800002 68
0.56999999 1.931 0.875 110
0.47499999 1.926 0.87199998 82
0 0 0 0
0.62300003 1.938 0.86799997 69
0.52100003 1.927 0.866 91
0 0 0 0
0.078000002 0.44499999 0.20100001 7
0.56999999 1.929 0.85399997 88
0.47299999 1.926 0.85699999 71
0 0 0 0
0 0 0 0
0.52200001 1.9349999 0.847 96
0 0 0 0
0.078000002 0.44600001 0.198 6
0.061000001 0.46799999 0.211 6
0.47099999 1.928 0.83499998 69
0.088 0.44800001 0.19599999 6
0 0 0 0
0 0 0 0
0 0 0 0
0 0 0 0
0.057 0.447 0.197 5
0.041000001 0.48199999 0.21600001 7
0 0 0 0
0.066 0.44800001 0.19400001 6
0 0 0 0
0 0 0 0
0.075000003 0.44299999 0.186 6
0 0 0 0
0.037999999 0.472 0.207 6
0.018999999 0.47600001 0.213 7
0 0 0 0
0.046999998 0.46599999 0.199 6
0 0 0 0
0 0 0 0
0.056000002 0.46200001 0.192 7
0 0 0 0
0.017000001 0.46700001 0.20299999 6
-0.001 0.46000001 0.206 6
0 0 0 0
0.025 0.46700001 0.198 6
0 0 0 0
0 0 0 0
0.034000002 0.47400001 0.19400001 7
0 0 0 0
-0.0040000002 0.45100001 0.19599999 6
-0.021 0.454 0.204 6
0 0 0 0
0.003 0.454 0.191 6
0 0 0 0
0 0 0 0
0.011 0.46200001 0.18700001 7
0 0 0 0
-0.024 0.45300001 0.197 6
-0.041999999 0.461 0.208 6
0 0 0 0
-0.017000001 0.44600001 0.18700001 6
0 0 0 0
0 0 0 0
-0.0099999998 0.44600001 0.17900001 6
0 0 0 0
-0.045000002 0.45100001 0.197 6
-0.063000001 0.46399999 0.211 7
0 0 0 0
-0.037 0.44299999 0.185 5
0 0 0 0
0 0 0 0
-0.030999999 0.44499999 0.178 6
0 0 0 0
-0.068000004 0.46399999 0.20299999 6
-0.085000001 0.46799999 0.214 6
0 0 0 0
-0.061999999 0.47 0.197 6
0 0 0 0
0 0 0 0
-0.056000002 0.46700001 0.186 7
0 0 0 0
-0.088 0.46000001 0.20200001 5
-0.109 0.47799999 0.221 7
0 0 0 0
-0.082000002 0.456 0.191 6
0 0 0 0
0 0 0 0
-0.079000004 0.46700001 0.186 7
0 0 0 0
-0.113 0.472 0.20900001 6
-0.13 0.47 0.22 7
0 0 0 0
-0.107 0.47 0.198 6
0 0 0 0
0 0 0 0
-0.1 0.458 0.183 6
0 0 0 0
-0.13699999 0.47299999 0.212 7
-0.15000001 0.463 0.22 7
0 0 0 0
-0.132 0.47400001 0.20100001 7
0 0 0 0
0 0 0 0
-0.13 0.47999999 0.192 7
0 0 0 0
-0.15700001 0.46399999 0.20999999 6
-0.176 0.472 0.228 7
0 0 0 0
-0.156 0.472 0.20299999 7
0 0 0 0
0 0 0 0
-0.153 0.47400001 0.191 7
0 0 0 0
-0.18000001 0.463 0.213 7
-0.2 0.472 0.23199999 7
0 0 0 0
-0.178 0.46399999 0.20200001 6
0 0 0 0
0 0 0 0
-0.178 0.47 0.192 7
0 0 0 0
-0.20900001 0.47099999 0.22 6
-0.226 0.47499999 0.23800001 8
0 0 0 0
-0.204 0.46599999 0.206 7
0 0 0 0
0 0 0 0
-0.204 0.46900001 0.19400001 8
0 0 0 0
-0.23199999 0.46599999 0.222 7
-0.25299999 0.477 0.244 8
0 0 0 0
-0.235 0.47400001 0.213 7
0 0 0 0
0 0 0 0
-0.23199999 0.47 0.197 8
0 0 0 0
-0.264 0.47400001 0.23100001 8
-0.31400001 0.53299999 0.28 10
0 0 0 0
-0.26199999 0.472 0.21600001 8
0 0 0 0
0 0 0 0
-0.26499999 0.47600001 0.204 8
0 0 0 0
-0.32699999 0.52899998 0.26499999 9
-0.35299999 0.54400003 0.294 1
0 0 0 0
-0.32699999 0.52899998 0.249 9
-1.304 2.006 1.018 30
-1.308 1.9220001 1.052 17
-0.329 0.52899998 0.23199999 7
-1.288 1.978 0.94099998 114
-1.3200001 1.9349999 0.99599999 70
-1.354 1.9 1.056 100
-1.242 1.892 0.83999997 150
-1.321 1.929 0.93099999 15
-1.3559999 1.893 0.98900002 116
-1.35 1.8099999 1.022 72
-1.335 1.929 0.86799997 63
-1.353 1.8789999 0.92000002 131
-1.354 1.804 0.95700002 73
-1.331 1.705 0.97799999 59
-1.353 1.857 0.84799999 128
-1.363 1.802 0.89600003 80
-1.342 1.706 0.92000002 76
-1.35 1.654 0.96600002 63
-1.359 1.773 0.82200003 117
-1.351 1.701 0.86000001 71
-1.365 1.656 0.90799999 69
-1.327 1.556 0.92500001 74
-1.347 1.6720001 0.78799999 59
-1.386 1.664 0.85500002 81
-1.326 1.536 0.85799998 90
-1.316 1.477 0.89399999 70
-1.409 1.663 0.79799998 93
-1.316 1.506 0.78899997 108
-1.332 1.476 0.83999997 63
-1.35 1.451 0.89499998 73
-1.3200001 1.483 0.72500002 95
-1.344 1.467 0.78299999 69
-1.364 1.443 0.838 64
-1.301 1.339 0.84299999 64
-1.367 1.462 0.72899997 84
-1.345 1.401 0.76300001 109
-1.314 1.329 0.78799999 72
-1.341 1.321 0.84899998 74
-1.3200001 1.345 0.685 79
-1.331 1.323 0.736 84
-1.36 1.3150001 0.796 74
-1.288 1.216 0.79900002 77
-1.3559999 1.316 0.685 84
-1.364 1.294 0.736 92
-1.306 1.207 0.74800003 76
-1.323 1.196 0.80400002 67
-1.318 1.2180001 0.64899999 68
-1.3279999 1.201 0.69999999 71
-1.353 1.1950001 0.75800002 65
-1.368 1.183 0.815 82
-1.358 1.1950001 0.653 77
-1.38 1.191 0.71100003 79
-1.396 1.177 0.76599997 83
-1.335 1.1059999 0.77999997 134
-1.408 1.179 0.66100001 79
-1.37 1.127 0.69099998 112
-1.309 1.054 0.704 78
-1.311 1.039 0.75199997 72
-1.33 1.0599999 0.611 83
-1.337 1.048 0.66000003 80
-1.346 1.036 0.71100003 74
-1.35 1.023 0.76099998 72
-1.374 1.041 0.61799997 81
-1.377 1.029 0.667 91
-1.3789999 1.012 0.71499997 91
-1.376 0.99599999 0.76300001 74
-1.408 1.013 0.62 88
-1.401 0.99599999 0.66600001 86
-1.4 0.97899997 0.713 72
-1.349 0.93300003 0.736 55
-1.419 0.97000003 0.61400002 68
-1.35 0.91299999 0.63 60
-1.334 0.889 0.66900003 74
-1.3279999 0.87699997 0.713 75
-1.364 0.88499999 0.57999998 77
-1.34 0.861 0.61500001 90
-1.274 0.80800003 0.62800002 73
-1.2819999 0.80699998 0.67799997 72
-1.3049999 0.801 0.54500002 74
-1.307 0.79699999 0.59100002 84
-1.308 0.79000002 0.63599998 76
-1.3099999 0.78600001 0.68300003 75
-1.332 0.77399999 0.54699999 82
-1.3 0.75099999 0.57800001 92
-1.276 0.73199999 0.611 67
-1.288 0.73500001 0.66299999 61
-1.332 0.73100001 0.53899997 74
-1.331 0.72899997 0.58399999 71
-1.322 0.71899998 0.62400001 13
-1.332 0.722 0.676 66
-1.3839999 0.71700001 0.55199999 15
-1.396 0.722 0.60399997 73
-1.396 0.71799999 0.64999998 77
-1.3890001 0.71499997 0.69599998 74
-1.421 0.69300002 0.55900002 82
-1.4119999 0.68800002 0.602 80
-1.3890001 0.676 0.639 75
-1.3710001 0.66799998 0.67900002 85
-1.337 0.61199999 0.51899999 77
-1.325 0.60799998 0.55800003 72
-1.317 0.60399997 0.59899998 72
-1.309 0.60399997 0.64099997 67
-1.365 0.58499998 0.523 11
-1.373 0.59200001 0.57200003 9
-1.372 0.59200001 0.61699998 10
-1.368 0.59500003 0.662 11
-1.423 0.56900001 0.54000002 86
-1.413 0.56999999 0.58200002 91
-1.401 0.56800002 0.62300003 78
-1.399 0.57300001 0.671 72
-1.42 0.52899998 0.53299999 87
-1.414 0.53200001 0.57599998 89
-1.409 0.53500003 0.62 79
-1.402 0.54000002 0.66500002 72
-1.415 0.48800001 0.52600002 15
-1.418 0.49599999 0.57200003 86
-1.414 0.5 0.616 73
-1.41 0.50800002 0.662 72
-1.418 0.45100001 0.52200001 15
-1.418 0.45899999 0.56699997 83
-1.404 0.46200001 0.60699999 14
-1.404 0.472 0.65399998 74
-1.329 0.38699999 0.48500001 13
-1.373 0.41 0.54500002 9
-1.392 0.42300001 0.59600002 11
-1.395 0.43599999 0.64399999 76
-1.387 0.368 0.50300002 14
-1.3430001 0.366 0.528 11
-1.314 0.36700001 0.55800003 12
-1.307 0.377 0.59899998 71
-1.418 0.34 0.51099998 21
-1.409 0.34900001 0.55000001 14
-1.399 0.35699999 0.58999997 14
-1.3839999 0.36700001 0.62900001 14
-1.4119999 0.30199999 0.505 14
-1.411 0.315 0.54799998 13
-1.403 0.32499999 0.588 13
-1.397 0.338 0.63 76
-1.406 0.26499999 0.5 20
-1.398 0.278 0.53899997 13
-1.395 0.28999999 0.58099997 13
-1.393 0.30599999 0.62400001 14
-1.369 0.22400001 0.48500001 11
-1.392 0.243 0.53399998 12
-1.381 0.255 0.57200003 13
-1.3839999 0.27200001 0.616 14
-1.3380001 0.186 0.47099999 18
-1.33 0.2 0.50700003 12
-1.323 0.213 0.54400003 10
-1.376 0.23999999 0.60900003 12
-1.3559999 0.155 0.47600001 13
-1.337 0.17 0.50800002 12
-1.321 0.183 0.54100001 12
-1.307 0.199 0.57499999 13
-1.386 0.125 0.486 13
-1.365 0.141 0.51700002 12
-1.344 0.155 0.54799998 12
-1.318 0.17200001 0.57700002 12
-1.401 0.092 0.49000001 14
-1.382 0.11 0.52200001 13
-1.363 0.126 0.55299997 12
-1.345 0.145 0.58600003 13
-1.4 0.059 0.48899999 14
-1.391 0.078000002 0.52399999 13
-1.381 0.097000003 0.55900002 13
-1.36 0.117 0.58999997 13
-1.399 0.025 0.48800001 14
-1.391 0.046 0.523 13
-1.383 0.064999998 0.55800003 13
-1.367 0.088 0.59100002 13
-1.353 -0.0080000004 0.472 12
-1.367 0.013 0.51300001 11
-1.377 0.034000002 0.55400002 13
-1.374 0.059 0.59200001 14
-1.3430001 -0.039999999 0.46799999 17
-1.336 -0.017000001 0.50099999 15
-1.344 0.003 0.54000002 11
-1.363 0.028000001 0.58499998 13
-1.378 -0.074000001 0.48100001 13
-1.34 -0.048 0.50199997 11
-1.326 -0.026000001 0.53200001 12
-1.327 0 0.56800002 12
-1.3200001 -0.103 0.46200001 12
-1.388 -0.082000002 0.51999998 13
-1.353 -0.057 0.542 11
-1.319 -0.028999999 0.56400001 13
-1.306 -0.133 0.458 12
-1.2970001 -0.107 0.486 15
-1.383 -0.089000002 0.55400002 13
-1.348 -0.059 0.57499999 12
-1.381 -0.17399999 0.48500001 13
-1.314 -0.14 0.493 10
-1.2920001 -0.113 0.51800001 12
-1.367 -0.089000002 0.58200002 13
-1.378 -0.207 0.486 14
-1.376 -0.17900001 0.51800001 13
-1.329 -0.146 0.53299999 9
-1.277 -0.112 0.54400003 12
-1.2640001 -0.221 0.44800001 18
-1.35 -0.207 0.509 12
-1.37 -0.182 0.55000001 13
-1.318 -0.14399999 0.56099999 10
-1.2640001 -0.252 0.44999999 11
-1.266 -0.22499999 0.479 15
-1.3329999 -0.208 0.53600001 12
-1.357 -0.178 0.57700002 13
-1.136 -0.255 0.40599999 19
-1.237 -0.249 0.47 10
-1.266 -0.226 0.50999999 15
-1.342 -0.207 0.57099998 13
-1.14 -0.28400001 0.41 20
-1.14 -0.257 0.435 15
-1.232 -0.249 0.498 11
-1.261 -0.222 0.537 12
-1.137 -0.31299999 0.412 19
-1.135 -0.28400001 0.435 15
-1.13 -0.255 0.458 15
-1.249 -0.249 0.53299999 11
-1.138 -0.34200001 0.41600001 19
-1.135 -0.31200001 0.43799999 15
-1.132 -0.28299999 0.46000001 15
-1.126 -0.25 0.48100001 17
-1.127 -0.368 0.41499999 19
-1.1289999 -0.33899999 0.43799999 15
-1.131 -0.31 0.46200001 15
-1.128 -0.27599999 0.48300001 16
-1.1289999 -0.39899999 0.419 18
-1.131 -0.368 0.44100001 15
-1.124 -0.33500001 0.461 15
-1.123 -0.301 0.48199999 16
-1.1289999 -0.42899999 0.42300001 18
-1.128 -0.396 0.44299999 15
-1.122 -0.36199999 0.46200001 15
-1.123 -0.32800001 0.484 16
-1.122 -0.45699999 0.42500001 17
-1.126 -0.42500001 0.44600001 15
-1.124 -0.391 0.46599999 15
-1.1210001 -0.354 0.484 16
-1.126 -0.49000001 0.43099999 19
-1.124 -0.454 0.449 15
-1.123 -0.419 0.46799999 15
-1.123 -0.382 0.48699999 16
-1.076 -0.49900001 0.417 9
-1.124 -0.48500001 0.45300001 16
-1.119 -0.447 0.47 15
-1.1210001 -0.40900001 0.48899999 16
-1.01 -0.49700001 0.396 8
-1.084 -0.49700001 0.44100001 8
-1.125 -0.479 0.47600001 15
-1.114 -0.43399999 0.48800001 16
-0.94999999 -0.49599999 0.377 8
-1.021 -0.49700001 0.41999999 6
-1.108 -0.50099999 0.472 10
-1.113 -0.463 0.49000001 16
-0.88499999 -0.48899999 0.35600001 7
-0.95499998 -0.49200001 0.39700001 7
-1.039 -0.49900001 0.447 7
-1.114 -0.49200001 0.49399999 17
-0.84200001 -0.491 0.34400001 6
-0.898 -0.48899999 0.37799999 7
-0.977 -0.49700001 0.42399999 6
-1.069 -0.50099999 0.477 7
-0.787 -0.484 0.32600001 10
-0.852 -0.49000001 0.36300001 6
-0.91500002 -0.491 0.40099999 7
-1.005 -0.498 0.45199999 7
-0.74800003 -0.484 0.315 9
-0.80400002 -0.48800001 0.347 6
-0.86299998 -0.48899999 0.382 7
-0.94099998 -0.493 0.42699999 8
-0.70499998 -0.48100001 0.30199999 9
-0.76099998 -0.486 0.333 8
-0.815 -0.486 0.36500001 6
-0.88800001 -0.49000001 0.40599999 7
-0.66500002 -0.47600001 0.28999999 10
-0.71399999 -0.479 0.317 8
-0.76999998 -0.48300001 0.34900001 8
