# .PCD v0.7 - Point Cloud Data file format
VERSION 0.7
FIELDS x y z intensity
SIZE 4 4 4 4
TYPE F F F F
COUNT 1 1 1 1
WIDTH 250
HEIGHT 1
VIEWPOINT 0 0 0 1 0 0 0
POINTS 250
DATA ascii
0.33700001 0.398 0.34599999 8
0.49399999 0.17200001 0.227 9
0.49399999 0.176 0.241 8
0.493 0.198 0.23100001 9
0.48800001 0.199 0.241 8
0.48699999 0.223 0.233 9
0.491 0.189 0.25299999 8
0.48100001 0.223 0.242 8
0.47799999 0.24699999 0.234 9
0.50300002 0.192 0.26899999 9
0.495 0.21699999 0.25799999 8
0.484 0.252 0.248 8
0.493 0.214 0.26699999 9
0.484 0.23899999 0.257 7
0.49399999 0.113 0.138 8
0.493 0.121 0.148 7
0.50199997 0.14 0.142 8
0.491 0.127 0.15800001 7
0.49900001 0.147 0.152 7
0.495 0.164 0.142 8
0.498 0.133 0.169 8
0.49900001 0.154 0.161 7
0.495 0.171 0.152 7
0.49200001 0.189 0.14300001 8
0.495 0.156 0.169 8
0.49599999 0.178 0.162 7
0.491 0.19599999 0.153 7
0.486 0.214 0.14399999 8
0.48800001 0.178 0.167 8
0.493 0.20200001 0.163 7
0.484 0.22 0.153 7
0.47999999 0.23899999 0.146 8
0.48699999 0.20200001 0.168 8
0.48300001 0.22400001 0.162 7
0.48100001 0.24600001 0.155 7
0.47099999 0.26300001 0.147 8
0.48199999 0.226 0.168 8
0.47600001 0.248 0.162 7
0.47299999 0.27000001 0.156 7
0.46399999 0.289 0.149 8
0.47600001 0.25 0.168 9
0.47299999 0.27500001 0.164 7
0.47099999 0.29899999 0.15899999 8
0.46000001 0.317 0.152 9
0.47099999 0.27399999 0.168 9
0.46900001 0.30199999 0.16599999 8
0.465 0.32600001 0.162 7
0.465 0.30000001 0.169 9
0.458 0.32600001 0.17 9
0.49399999 0.064000003 0.064000003 7
0.49900001 0.078000002 0.075999998 6
0.5 0.090000004 0.064999998 7
0.5 0.079000004 0.086999997 6
0.495 0.102 0.075000003 6
0.495 0.114 0.064999998 7
0.50400001 0.090000004 0.097000003 7
0.50700003 0.104 0.088 6
0.49000001 0.125 0.075000003 7
0.491 0.138 0.066 7
0.498 0.112 0.094999999 7
0.49900001 0.127 0.086000003 6
0.486 0.148 0.075000003 7
0.49000001 0.163 0.066 7
0.49900001 0.13600001 0.094999999 7
0.495 0.15000001 0.086000003 6
0.48100001 0.17200001 0.075000003 7
0.48500001 0.18799999 0.067000002 7
0.49599999 0.15899999 0.093999997 7
0.49000001 0.17299999 0.085000001 6
0.47499999 0.19499999 0.075000003 7
0.479 0.212 0.068000004 7
0.491 0.18099999 0.093000002 8
0.48699999 0.197 0.085000001 6
0.47 0.219 0.075999998 7
0.479 0.23999999 0.068999998 8
0.48899999 0.205 0.093000002 8
0.48500001 0.222 0.086000003 7
0.472 0.24699999 0.077 7
0.47 0.26499999 0.07 8
0.48100001 0.228 0.092 8
0.477 0.24600001 0.085000001 7
0.46599999 0.273 0.078000002 7
0.463 0.29100001 0.071000002 8
0.47799999 0.25299999 0.092 8
0.47099999 0.27000001 0.085000001 7
0.456 0.296 0.078000002 7
0.46599999 0.27399999 0.090000004 8
0.46700001 0.29699999 0.086000003 7
0.45899999 0.29800001 0.090000004 8
0.49000001 0.093000002 0.041000001 7
0.48500001 0.115 0.039999999 7
0.49399999 0.127 0.028999999 6
0.477 0.14399999 0.017000001 6
0.48199999 0.13699999 0.039000001 7
0.49000001 0.15000001 0.028999999 6
0.472 0.16500001 0.0060000001 7
0.47 0.16599999 0.017000001 6
0.477 0.15899999 0.037999999 7
0.486 0.17399999 0.028000001 6
0.46700001 0.189 0.0060000001 7
0.47299999 0.193 0.017000001 7
0.479 0.183 0.037 8
0.48199999 0.197 0.028000001 6
0.47099999 0.21699999 0.0070000002 8
0.46700001 0.21600001 0.017000001 7
0.47099999 0.205 0.035999998 7
0.48199999 0.22400001 0.028000001 7
0.46200001 0.241 0.0070000002 8
0.458 0.23899999 0.017000001 7
0.46700001 0.229 0.035 8
0.477 0.248 0.027000001 7
0.46000001 0.25099999 0.034000002 8
0.46700001 0.271 0.026000001 7
0.47 0.162 0.0040000002 7
0.46700001 0.182 -0.0080000004 6
0.46900001 0.186 0.003 7
0.46700001 0.208 -0.0089999996 7
0.47600001 0.221 -0.023 6
0.465 0.208 0.0020000001 7
0.463 0.23100001 -0.0099999998 7
0.45100001 0.236 -0.022 3
0.465 0.234 0.001 8
0.46700001 0.17 0 9
0.465 0.19400001 -0.001 9
0.47499999 0.207 -0.017999999 6
0.46200001 0.21699999 -0.001 8
0.47600001 0.234 -0.017999999 7
0.46000001 0.242 -0.0020000001 8
0.484 0.123 0.024 7
0.484 0.146 0.025 7
0.49000001 0.155 0.0089999996 6
0.48500001 0.17 0.025 7
0.484 0.178 0.0089999996 6
0.48199999 0.184 -0.0070000002 6
0.47799999 0.192 0.026000001 8
0.484 0.20299999 0.0089999996 7
0.47299999 0.207 -0.0070000002 6
0.47299999 0.21600001 -0.024 7
0.47400001 0.215 0.026000001 8
0.48100001 0.228 0.0099999998 7
0.47799999 0.236 -0.0070000002 7
0.45699999 0.236 -0.023 5
0.46799999 0.23800001 0.026000001 8
0.47499999 0.25299999 0.0099999998 7
0.465 0.26300001 0.027000001 8
0.498 0.067000002 0.066 7
0.49900001 0.081 0.052999999 6
0.49399999 0.089000002 0.067000002 7
0.49599999 0.104 0.052999999 6
0.498 0.107 0.039000001 6
0.49000001 0.111 0.068000004 7
0.49399999 0.127 0.054000001 6
0.495 0.131 0.039999999 6
0.49000001 0.133 0.025 7
0.49900001 0.13600001 0.07 7
0.48800001 0.149 0.054000001 7
0.491 0.154 0.039999999 6
0.48899999 0.15899999 0.025 7
0.49900001 0.16 0.071999997 7
0.48500001 0.17200001 0.055 7
0.48300001 0.177 0.039999999 6
0.48199999 0.183 0.025 7
0.49000001 0.18099999 0.071999997 7
0.47799999 0.19499999 0.056000002 7
0.484 0.20299999 0.041999999 6
0.47600001 0.208 0.026000001 7
0.48500001 0.204 0.072999999 8
0.47499999 0.219 0.057 7
0.47999999 0.229 0.041999999 7
0.477 0.235 0.027000001 8
0.48800001 0.23 0.075000003 8
0.47499999 0.24600001 0.059 7
0.477 0.255 0.043000001 7
0.46900001 0.26100001 0.027000001 8
0.48199999 0.25400001 0.075999998 8
0.46700001 0.26899999 0.059999999 7
0.46700001 0.27900001 0.044 6
0.47099999 0.27500001 0.077 8
0.46000001 0.29699999 0.077 7
0.50199997 0.085000001 0.102 7
0.50999999 0.085000001 0.090999998 7
0.51200002 0.101 0.133 8
0.509 0.1 0.118 7
0.49599999 0.108 0.102 7
0.505 0.11 0.090999998 7
0.51200002 0.124 0.13500001 8
0.50999999 0.124 0.12 7
0.49200001 0.131 0.103 7
0.49900001 0.134 0.090999998 7
0.50599998 0.146 0.13600001 8
0.50400001 0.146 0.12 7
0.48899999 0.155 0.104 7
0.49900001 0.16 0.093000002 7
0.50199997 0.169 0.13699999 8
0.49900001 0.17 0.122 7
0.48699999 0.17900001 0.106 7
0.495 0.186 0.093999997 8
0.49700001 0.191 0.139 8
0.49700001 0.19400001 0.124 7
0.486 0.205 0.108 7
0.48699999 0.20999999 0.093999997 8
0.491 0.213 0.14 8
0.48899999 0.21699999 0.125 7
0.48199999 0.23100001 0.11 7
0.48699999 0.23800001 0.097000003 8
0.48699999 0.237 0.142 8
0.484 0.241 0.126 7
0.477 0.25600001 0.112 7
0.477 0.26199999 0.097000003 8
0.48199999 0.26100001 0.145 8
0.479 0.266 0.12899999 7
0.46900001 0.28099999 0.113 8
0.47099999 0.289 0.098999999 8
0.47799999 0.28600001 0.147 9
0.47799999 0.294 0.133 7
0.463 0.30700001 0.116 8
0.447 0.30500001 0.097999997 0
0.477 0.315 0.152 9
0.46900001 0.31799999 0.134 8
0.463 0.33500001 0.152 9
0.50400001 0.126 0.17 8
0.5 0.14399999 0.2 7
0.50099999 0.141 0.185 7
0.5 0.16 0.21799999 9
0.50099999 0.15099999 0.171 8
0.49599999 0.167 0.20200001 7
0.50199997 0.16599999 0.18799999 7
0.49599999 0.182 0.22 9
0.49599999 0.176 0.17299999 8
0.493 0.191 0.205 8
0.49599999 0.19 0.19 7
0.48899999 0.20299999 0.222 9
0.48899999 0.2 0.17399999 8
0.48300001 0.213 0.205 7
0.49000001 0.214 0.192 7
0.48199999 0.22499999 0.223 9
0.484 0.226 0.176 8
0.47799999 0.236 0.208 8
0.486 0.23999999 0.19499999 7
0.48199999 0.25 0.228 9
0.47600001 0.25099999 0.178 9
0.47400001 0.26100001 0.211 8
0.486 0.26899999 0.2 7
0.479 0.27500001 0.233 8
0.46799999 0.27599999 0.18000001 9
0.47 0.287 0.215 8
0.48199999 0.296 0.205 7
0.47 0.308 0.18700001 9
0.47299999 0.322 0.207 7
0.463 0.33700001 0.192 9
