# .PCD v0.7 - Point Cloud Data file format
VERSION 0.7
FIELDS x y z intensity
SIZE 4 4 4 4
TYPE F F F F
COUNT 1 1 1 1
WIDTH 1138
HEIGHT 1
VIEWPOINT 0 0 0 1 0 0 0
POINTS 1138
DATA ascii
1.831 -0.19 0.082999997 106
1.812 -0.186 0.028999999 86
1.758 -0.18000001 -0.021 85
1.7309999 -0.175 -0.071000002 61
1.7690001 -0.14399999 0.081 106
1.757 -0.14 0.028999999 108
1.735 -0.13699999 -0.02 95
1.722 -0.132 -0.071000002 70
1.753 -0.104 0.082000002 94
1.739 -0.098999999 0.028999999 84
1.728 -0.096000001 -0.02 89
1.724 -0.090999998 -0.071999997 63
1.793 -0.067000002 0.085000001 74
1.829 -0.061999999 0.032000002 150
1.899 -0.061000001 -0.022 154
2.1689999 -0.061999999 -0.090999998 127
2.224 -0.034000002 0.107 107
2.2179999 -0.026000001 0.039000001 104
2.2079999 -0.018999999 -0.025 113
2.194 -0.0099999998 -0.092 111
2.224 0.015 0.108 110
2.214 0.024 0.039999999 105
2.201 0.030999999 -0.025 111
2.191 0.041999999 -0.092 111
2.221 0.063000001 0.109 121
2.2130001 0.074000001 0.041000001 107
2.2 0.082999997 -0.024 128
2.1900001 0.093999997 -0.092 109
2.2149999 0.112 0.11 108
2.2130001 0.124 0.041999999 101
2.1989999 0.134 -0.024 114
2.1900001 0.147 -0.093000002 104
2.224 0.162 0.112 109
2.2119999 0.175 0.043000001 106
2.1930001 0.185 -0.024 109
2.1849999 0.199 -0.093000002 97
2.223 0.211 0.113 109
2.2260001 0.227 0.044 102
2.22 0.23999999 -0.024 113
2.207 0.255 -0.093999997 101
2.237 0.26199999 0.116 106
2.2290001 0.27900001 0.045000002 107
2.214 0.292 -0.024 109
2.2060001 0.31 -0.094999999 102
2.2149999 0.329 0.045000002 97
2.207 0.34400001 -0.023 114
2.198 0.36199999 -0.094999999 102
0.58999997 0.096000001 0.030999999 10
2.2049999 0.39700001 -0.023 98
2.1960001 0.417 -0.094999999 89
2.2 0.449 -0.023 103
2.187 0.47 -0.094999999 84
0.59299999 0.123 0.032000002 10
0.59500003 0.13 0.013 9
2.1830001 0.52399999 -0.096000001 83
2.1819999 0.579 -0.096000001 110
0.58600003 0.149 0.032000002 10
0.59200001 0.15800001 0.013 9
0.59100002 0.164 -0.0060000001 8
0.583 0.176 0.033 10
0.58899999 0.186 0.013 9
0.58600003 0.193 -0.0049999999 8
0.57700002 0.199 -0.025 10
0.58200002 0.204 0.033 10
0.58999997 0.21600001 0.014 9
0.58499998 0.22400001 -0.0049999999 8
0.57800001 0.23100001 -0.026000001 10
0.57800001 0.23199999 0.034000002 10
0.583 0.245 0.014 9
0.57700002 0.252 -0.0049999999 8
0.57200003 0.26100001 -0.026000001 10
0.57499999 0.26100001 0.035 11
0.57999998 0.27500001 0.015 9
0.58200002 0.28799999 -0.0049999999 9
0.57099998 0.28999999 0.035 11
0.57200003 0.30399999 0.015 6
0.20299999 0.514 -0.013 8
0.20900001 0.51599997 0 7
0.213 0.51300001 0.013 7
0.207 0.51899999 0.025 8
1.892 -0.199 0.245 104
1.799 -0.15000001 0.235 97
1.79 -0.156 0.189 85
1.79 -0.16500001 0.147 84
1.775 -0.169 0.102 75
1.8 -0.111 0.236 94
1.7869999 -0.115 0.189 95
1.7690001 -0.121 0.145 98
1.766 -0.126 0.101 102
1.844 -0.072999999 0.243 153
1.798 -0.075000003 0.191 91
1.7819999 -0.081 0.146 92
1.778 -0.083999999 0.101 80
2.2509999 -0.039999999 0.29899999 101
2.2449999 -0.044 0.23999999 90
2.2349999 -0.048999999 0.184 106
2.2290001 -0.052000001 0.127 104
2.2509999 0.0080000004 0.301 108
2.2390001 0.0060000001 0.241 110
2.2360001 0.0020000001 0.185 107
2.2260001 0.001 0.126 110
2.247 0.057999998 0.303 103
2.2420001 0.057 0.243 88
2.233 0.054000001 0.185 102
2.2249999 0.054000001 0.126 108
2.2490001 0.107 0.30500001 110
2.2409999 0.108 0.244 97
2.223 0.105 0.185 101
2.223 0.108 0.126 101
2.247 0.156 0.30700001 108
2.234 0.15800001 0.245 102
2.2320001 0.15800001 0.186 103
2.2260001 0.161 0.126 103
2.2379999 0.205 0.30899999 100
2.237 0.20900001 0.24699999 97
2.2279999 0.20999999 0.18700001 105
2.2219999 0.215 0.126 102
2.2639999 0.257 0.315 105
2.2590001 0.26199999 0.25099999 94
2.2449999 0.264 0.189 106
2.2309999 0.27000001 0.127 104
2.26 0.30599999 0.317 102
2.2539999 0.31299999 0.252 104
2.2550001 0.35600001 0.31900001 103
0.588 0.1 0.033 10
0.58700001 0.111 0.050000001 9
0.59200001 0.12 0.085000001 10
0.59600002 0.124 0.068000004 8
0.59200001 0.141 0.050999999 9
0.58600003 0.146 0.086000003 10
0.59500003 0.152 0.068999998 8
0.58499998 0.15800001 0.034000002 10
0.58700001 0.169 0.052000001 9
0.588 0.17399999 0.088 10
0.59200001 0.18000001 0.07 8
0.58399999 0.189 0.035 10
0.579 0.19599999 0.052000001 9
0.58499998 0.20100001 0.089000002 10
0.59299999 0.20999999 0.071999997 9
0.57800001 0.21799999 0.035 10
0.57499999 0.22499999 0.052999999 9
0.57999998 0.228 0.090000004 10
0.58600003 0.23800001 0.072999999 9
0.57800001 0.25099999 0.035999998 11
0.57999998 0.259 0.055 9
0.58099997 0.25799999 0.093000002 11
0.58600003 0.27000001 0.075000003 9
0.57200003 0.28099999 0.037 11
0.57499999 0.28999999 0.056000002 10
0.57599998 0.287 0.093999997 11
0.58399999 0.301 0.077 9
0.57700002 0.32499999 0.057999998 9
0.57800001 0.31999999 0.097999997 11
0.588 0.338 0.079999998 9
0.215 0.51899999 0.041999999 8
0.20999999 0.52600002 0.056000002 7
0.235 0.52399999 0.083999999 8
0.21600001 0.52600002 0.07 7
0.22 0.51999998 0.082000002 9
0.20200001 0.54500002 0.083999999 9
2.175 -0.189 0.54699999 139
1.9220001 -0.191 0.44 70
1.938 -0.126 0.48899999 153
1.855 -0.14300001 0.42500001 59
1.87 -0.16599999 0.389 54
1.881 -0.18799999 0.34900001 96
1.9 -0.082999997 0.48100001 153
1.83 -0.098999999 0.41999999 78
1.826 -0.12 0.38 88
1.8150001 -0.13699999 0.33700001 86
2.293 -0.050999999 0.58200002 86
2.217 -0.071000002 0.50999999 143
1.875 -0.079999998 0.38999999 155
1.8099999 -0.093999997 0.33500001 91
2.2909999 -0.001 0.58399999 92
2.2060001 -0.021 0.509 148
2.1800001 -0.041999999 0.454 138
2.234 -0.061999999 0.41299999 141
2.29 0.048 0.58700001 89
2.223 0.028000001 0.51499999 150
2.256 0.0070000002 0.47 113
2.2720001 -0.0089999996 0.41999999 110
2.29 0.097000003 0.58899999 81
2.2780001 0.079000004 0.52999997 96
2.276 0.059999999 0.47600001 105
2.26 0.044 0.41800001 96
2.2880001 0.147 0.59200001 87
2.2809999 0.13 0.53200001 86
2.263 0.112 0.47400001 99
2.2579999 0.097999997 0.41800001 104
2.2839999 0.19599999 0.59399998 84
2.277 0.182 0.53399998 80
2.2709999 0.16500001 0.477 105
2.2550001 0.152 0.41800001 98
2.3180001 0.249 0.60699999 96
2.293 0.235 0.54000002 81
2.276 0.219 0.47999999 97
2.2579999 0.207 0.41999999 94
2.3139999 0.30000001 0.60900003 105
2.289 0.28600001 0.542 82
2.289 0.27399999 0.48500001 87
2.277 0.264 0.42399999 93
2.313 0.34999999 0.61299998 95
2.286 0.338 0.54500002 78
2.2820001 0.32699999 0.48500001 91
2.2750001 0.31900001 0.426 94
2.3039999 0.40000001 0.61500001 98
2.2939999 0.39199999 0.55000001 107
2.2820001 0.38100001 0.48800001 92
2.2709999 0.37400001 0.42699999 86
2.2980001 0.44999999 0.61799997 103
2.2939999 0.44400001 0.55400002 99
2.2690001 0.433 0.48800001 86
2.299 0.50199997 0.62300003 101
2.2839999 0.49599999 0.55500001 114
0.59399998 0.127 0.112 10
0.588 0.14 0.12800001 9
0.58700001 0.14 0.112 10
0.58399999 0.154 0.14399999 9
0.59100002 0.169 0.164 11
0.588 0.17 0.13 9
0.59100002 0.17200001 0.114 10
0.58899999 0.184 0.148 9
0.59299999 0.198 0.168 11
0.58399999 0.198 0.132 9
0.58899999 0.20200001 0.116 10
0.583 0.211 0.149 9
0.58899999 0.22499999 0.17 11
0.583 0.229 0.134 9
0.58700001 0.234 0.118 10
0.58099997 0.241 0.152 10
0.59100002 0.25600001 0.17399999 11
0.588 0.26300001 0.139 10
0.58499998 0.266 0.121 10
0.597 0.27399999 0.178 11
0.59200001 0.27700001 0.15899999 9
0.58600003 0.28400001 0.177 12
0.58499998 0.29499999 0.141 10
0.58700001 0.30199999 0.124 11
0.59500003 0.30500001 0.182 11
0.59500003 0.31099999 0.164 9
0.58700001 0.31999999 0.126 12
0.59500003 0.32100001 0.185 11
0.58499998 0.33000001 0.146 10
0.58499998 0.34 0.16599999 11
0.57999998 0.354 0.12899999 12
0.58600003 0.34900001 0.18700001 3
0.58499998 0.366 0.15000001 10
0.58200002 0.375 0.17 7
0.23800001 0.51999998 0.132 8
0.22400001 0.53299999 0.119 9
0.227 0.528 0.133 8
0.229 0.52200001 0.145 8
0.205 0.546 0.13500001 8
0.226 0.53299999 0.16 10
0.211 0.54699999 0.149 8
0.205 0.54900002 0.162 10
1.826 -0.182 0.74699998 50
1.676 -0.13 0.68599999 115
1.919 -0.191 0.73900002 58
2.3239999 -0.131 0.95300001 106
1.75 -0.13500001 0.67400002 150
1.993 -0.19499999 0.72100002 50
2.3499999 -0.082000002 0.96600002 83
2.3280001 -0.12800001 0.89700001 26
1.852 -0.138 0.67000002 150
2.098 -0.19400001 0.708 51
2.3610001 -0.030999999 0.97299999 76
2.3440001 -0.077 0.90399998 85
2.276 -0.118 0.82300001 15
1.952 -0.134 0.65799999 150
2.359 0.017999999 0.97500002 82
2.346 -0.024 0.90700001 92
2.3380001 -0.067000002 0.84500003 103
2.283 -0.102 0.76800001 63
2.359 0.068000004 0.97799999 80
2.345 0.027000001 0.90799999 86
2.3380001 -0.013 0.84600002 89
2.3299999 -0.048999999 0.78299999 93
2.3559999 0.119 0.98100001 74
2.3440001 0.079000004 0.91000003 88
2.336 0.039000001 0.84600002 90
2.332 0.0049999999 0.78399998 106
2.352 0.169 0.98299998 83
2.3399999 0.131 0.91100001 88
2.3340001 0.093000002 0.847 90
2.3269999 0.059999999 0.78299999 99
2.3540001 0.22 0.98799998 20
2.3369999 0.183 0.91299999 83
2.3280001 0.146 0.847 90
2.3239999 0.115 0.78299999 96
2.3710001 0.273 1 20
2.3640001 0.23800001 0.92699999 78
2.3280001 0.2 0.85000002 90
2.322 0.17 0.78399998 105
2.359 0.28999999 0.93000001 82
2.3529999 0.257 0.86199999 101
2.3410001 0.228 0.79299998 98
2.3599999 0.34400001 0.935 82
2.3499999 0.31099999 0.86400002 95
2.339 0.28400001 0.79400003 102
2.3570001 0.396 0.93800002 82
2.342 0.36500001 0.86500001 91
2.339 0.34099999 0.79699999 96
2.348 0.449 0.94099998 88
2.3469999 0.421 0.87099999 89
2.339 0.398 0.801 97
2.345 0.50199997 0.94499999 80
2.3410001 0.47600001 0.87400001 80
2.3310001 0.454 0.80199999 96
2.3410001 0.55599999 0.949 77
2.3340001 0.53100002 0.87699997 83
2.3280001 0.51099998 0.80599999 85
2.326 0.58600003 0.88 20
2.323 0.56900001 0.81 98
0.59299999 0.193 0.229 9
0.60000002 0.193 0.214 11
0.59100002 0.211 0.25 10
0.597 0.208 0.214 11
0.58999997 0.223 0.233 9
0.58999997 0.23800001 0.21699999 11
0.59299999 0.273 0.223 11
0.442 0.51200002 0.29699999 12
0.414 0.52100003 0.273 3
0.403 0.509 0.285 11
0.39199999 0.51700002 0.285 12
0.39500001 0.54400003 0.27599999 10
0.389 0.537 0.29100001 13
0.368 0.53200001 0.28400001 11
0.36399999 0.55199999 0.27200001 9
0.34999999 0.52999997 0.27900001 12
0.338 0.56599998 0.25400001 10
0.33899999 0.537 0.278 11
0.33399999 0.55900002 0.26800001 8
0.333 0.55400002 0.28299999 13
0.30700001 0.57200003 0.25099999 11
0.30199999 0.59799999 0.242 11
0.31799999 0.55699998 0.28099999 10
0.30500001 0.56699997 0.266 9
0.29800001 0.58700001 0.255 9
0.25799999 0.54400003 0.21799999 9
0.26199999 0.54799998 0.236 9
0.23999999 0.537 0.214 9
0.292 0.56599998 0.27900001 11
0.27500001 0.57099998 0.26199999 8
0.228 0.53899997 0.228 8
0.21600001 0.55599999 0.21799999 10
0.25299999 0.54699999 0.264 10
0.237 0.55299997 0.249 8
0.23800001 0.54500002 0.25999999 10
0.20299999 0.55000001 0.229 8
0.205 0.54699999 0.242 9
0.212 0.55000001 0.257 10
0.2 0.55400002 0.257 10
1.243 -0.164 0.75300002 107
1.224 -0.13500001 0.74199998 7
1.3660001 -0.121 0.82800001 0
1.293 -0.155 0.741 115
1.3 -0.127 0.74400002 1
1.466 -0.185 0.79400003 64
1.339 -0.138 0.72399998 67
1.552 -0.199 0.792 65
1.482 -0.119 0.80000001 0
1.4170001 -0.148 0.72100002 150
1.51 -0.123 0.76700002 1
0.56199998 0.30700001 0.40400001 8
0.55599999 0.31900001 0.405 12
0.546 0.329 0.403 12
0.53799999 0.34 0.403 12
0.54699999 0.34400001 0.38299999 2
0.52100003 0.34400001 0.39500001 12
0.53399998 0.352 0.37900001 6
0.51099998 0.354 0.39399999 12
0.52899998 0.36500001 0.38100001 10
0.50700003 0.36700001 0.39700001 12
0.51300001 0.37200001 0.37599999 10
0.53500003 0.38699999 0.36700001 9
0.49399999 0.373 0.39300001 12
0.50099999 0.38 0.37400001 10
0.51499999 0.391 0.36000001 9
0.49000001 0.38600001 0.39500001 12
0.49200001 0.391 0.37400001 9
0.50599998 0.403 0.361 10
0.48199999 0.39700001 0.396 12
0.48699999 0.40400001 0.377 9
0.495 0.41299999 0.36000001 10
0.49900001 0.421 0.34099999 12
0.472 0.405 0.39399999 12
0.47400001 0.412 0.37400001 9
0.484 0.42300001 0.359 9
0.48100001 0.426 0.336 11
0.46599999 0.417 0.39700001 11
0.47 0.426 0.37799999 10
0.47299999 0.433 0.359 9
0.456 0.426 0.396 12
0.456 0.43200001 0.375 8
0.458 0.43900001 0.35499999 9
0.45899999 0.447 0.33700001 11
0.44299999 0.43099999 0.39199999 11
0.44499999 0.44100001 0.37400001 9
0.44999999 0.45199999 0.35800001 9
0.447 0.45699999 0.336 11
0.44299999 0.449 0.40000001 11
0.43599999 0.45100001 0.37400001 6
0.42699999 0.458 0.33000001 12
0.42699999 0.45199999 0.39399999 9
0.421 0.456 0.37099999 8
0.42300001 0.465 0.35299999 9
0.42500001 0.47799999 0.338 12
0.41499999 0.458 0.39199999 10
0.41600001 0.47 0.375 10
0.40400001 0.47799999 0.331 11
0.41 0.472 0.39700001 3
0.39899999 0.472 0.37 6
0.40200001 0.48500001 0.35499999 9
0.396 0.49000001 0.33399999 11
0.40400001 0.486 0.40099999 9
0.39500001 0.48800001 0.37599999 6
0.37900001 0.49399999 0.331 13
0.41299999 0.51800001 0.41999999 0
0.38100001 0.49200001 0.373 6
0.37900001 0.50300002 0.35600001 10
0.37 0.50700003 0.33500001 11
0.37200001 0.50400001 0.375 6
0.36199999 0.51300001 0.377 8
0.35699999 0.52200001 0.35800001 9
0.345 0.523 0.336 11
0.33899999 0.50400001 0.36399999 7
0.32600001 0.52100003 0.33000001 12
0.33000001 0.51499999 0.36700001 7
0.32600001 0.528 0.35299999 8
0.322 0.52700001 0.37099999 9
0.31600001 0.53799999 0.35499999 9
0.30500001 0.54299998 0.336 11
0.29899999 0.53799999 0.35100001 10
0.28799999 0.54699999 0.352 10
0.278 0.55599999 0.33700001 11
0.27500001 0.55199999 0.352 10
0.26300001 0.56 0.336 11
0.26199999 0.55800003 0.35299999 10
0.249 0.56300002 0.33500001 10
0.26100001 0.55699998 0.37 9
0.25099999 0.56800002 0.35499999 9
0.233 0.565 0.33399999 10
0.252 0.56400001 0.389 1
0.237 0.57099998 0.373 8
0.221 0.56999999 0.35100001 8
0.20200001 0.56300002 0.32800001 9
0.23999999 0.56999999 0.389 3
0.222 0.56999999 0.368 8
0.22499999 0.56800002 0.384 6
0.212 0.57099998 0.382 10
0.20200001 0.58099997 0.38600001 9
1.008 -0.2 0.85699999 11
0.93900001 -0.16599999 0.79699999 10
0.94599998 -0.146 0.801 3
0.94300002 -0.126 0.79900002 4
1.011 -0.17399999 0.80500001 10
0.94 -0.105 0.796 8
0.98500001 -0.148 0.78200001 5
1.084 -0.138 0.85900003 0
1.0650001 -0.17200001 0.79500002 11
1.04 -0.14399999 0.77399999 6
1.192 -0.199 0.83399999 12
1.152 -0.133 0.85600001 0
1.089 -0.156 0.75999999 11
1.153 -0.138 0.80199999 1
0.61000001 0.228 0.48800001 5
0.61799997 0.223 0.458 4
0.58700001 0.235 0.47400001 8
0.63599998 0.24699999 0.47600001 3
0.574 0.245 0.46799999 10
0.61900002 0.257 0.46799999 4
0.59600002 0.27900001 0.53100002 0
0.56800002 0.25799999 0.46799999 6
0.60900003 0.27000001 0.46599999 4
0.56 0.26899999 0.46700001 6
0.61299998 0.289 0.47400001 7
0.55299997 0.28200001 0.46700001 11
0.58899999 0.29499999 0.461 4
0.537 0.289 0.45899999 11
0.54500002 0.289 0.433 12
0.528 0.30000001 0.45699999 11
0.542 0.30500001 0.43700001 13
0.523 0.31299999 0.45899999 6
0.514 0.324 0.45899999 5
0.52399999 0.32800001 0.435 12
0.50700003 0.336 0.45899999 4
0.514 0.33899999 0.435 11
0.5 0.347 0.46000001 2
0.51200002 0.35499999 0.44 12
0.49700001 0.36300001 0.46599999 0
0.495 0.361 0.43399999 11
0.495 0.37900001 0.442 9
0.477 0.384 0.43399999 4
0.479 0.405 0.44600001 1
0.477 0.42300001 0.454 0
0.80599999 -0.184 0.833 12
0.78100002 -0.16 0.80400002 7
0.87 -0.15899999 0.89300001 2
0.89200002 -0.191 0.852 10
0.91500002 -0.147 0.93599999 10
0.83399999 -0.15899999 0.79299998 8
0.91600001 -0.127 0.935 5
0.91799998 -0.155 0.87 1
0.93800002 -0.182 0.82599998 11
1.002 -0.146 0.94599998 11
0.90600002 -0.154 0.79400003 6
0.91000003 -0.112 0.85699999 0
1.0369999 -0.152 0.90600002 6
0.926 -0.114 0.80599999 9
0.74299997 -0.17900001 0.81699997 12
0.74199998 -0.161 0.81199998 6
0.82300001 -0.16 0.89600003 1
0.78799999 -0.162 0.787 11
0.88 -0.15099999 0.954 10
0.87099999 -0.15800001 0.86500001 1
0.91100001 -0.13600001 0.98400003 5
0.94199997 -0.149 0.93199998 10
0.72899997 -0.16599999 0.79699999 11
0.80299997 -0.175 0.80000001 13
0.78299999 -0.16 0.852 1
0.80900002 -0.156 0.80199999 3
0.88099998 -0.15899999 0.95300001 7
0.92000002 -0.156 0.90700001 3
0.95899999 -0.14 0.94199997 7
0.91600001 -0.124 0.98299998 0
0.99400002 -0.2 0.86699998 11
0.81699997 -0.19 0.847 12
0.83600003 -0.17 0.79100001 12
0.89700001 -0.15899999 0.778 13
0.77499998 -0.162 0.79900002 11
0.85900003 -0.155 0.80800003 1
0.99199998 -0.152 0.85600001 2
0.847 -0.15899999 0.86900002 1
0.98100001 -0.154 0.91900003 1
0.95700002 -0.124 0.82300001 9
0.91399997 -0.15099999 0.93300003 10
0.96700001 -0.13 0.90200001 3
0.93599999 -0.098999999 0.80199999 4
0.926 -0.132 0.94099998 6
1.2029999 -0.184 0.82499999 12
1.082 -0.17399999 0.79799998 11
1.105 -0.14300001 0.755 5
1.013 -0.17399999 0.80299997 10
1.038 -0.14300001 0.76200002 3
1.256 -0.132 0.85500002 0
0.98299998 -0.189 0.84100002 11
0.97899997 -0.147 0.77200001 5
1.188 -0.13600001 0.86799997 0
0.91600001 -0.156 0.77999997 9
1.102 -0.14 0.866 0
1 -0.149 0.847 1
0.93900001 -0.119 0.79100001 9
0.94099998 -0.098999999 0.78899997 4
0.61900002 0.236 0.47099999 6
0.61799997 0.26800001 0.45199999 4
0.62199998 0.25299999 0.477 6
0.61199999 0.28299999 0.45300001 8
0.61299998 0.23100001 0.49200001 4
0.62300003 0.271 0.48199999 4
0.60799998 0.29800001 0.454 7
0.58200002 0.234 0.47 7
0.61299998 0.28299999 0.479 4
0.56199998 0.29100001 0.42500001 13
0.57300001 0.24600001 0.46700001 8
0.59200001 0.28999999 0.46700001 3
0.55500001 0.30500001 0.426 13
0.56699997 0.259 0.46599999 10
0.55000001 0.285 0.43900001 9
0.54699999 0.317 0.42500001 13
0.60100001 0.25 0.51200002 3
0.53899997 0.29499999 0.435 12
0.53399998 0.32600001 0.421 13
0.58399999 0.25799999 0.5 4
0.551 0.28200001 0.46000001 6
0.542 0.31299999 0.442 10
0.523 0.336 0.41800001 12
0.565 0.26499999 0.48699999 4
0.54100001 0.292 0.45699999 8
0.52899998 0.32100001 0.43700001 10
0.52100003 0.352 0.42300001 12
0.55500001 0.27500001 0.48199999 4
0.53799999 0.30700001 0.45899999 9
0.523 0.33399999 0.43799999 9
0.50800002 0.36000001 0.419 12
0.54500002 0.28600001 0.477 4
0.52600002 0.315 0.45300001 7
0.51800001 0.34799999 0.44 9
0.5 0.373 0.41999999 11
0.53899997 0.29800001 0.47600001 6
0.52100003 0.329 0.45500001 7
0.50700003 0.35800001 0.43700001 9
0.495 0.38699999 0.42399999 13
0.53399998 0.31099999 0.47600001 3
0.514 0.34099999 0.454 7
0.49599999 0.36700001 0.435 8
0.48199999 0.39500001 0.41999999 11
0.52999997 0.32499999 0.477 3
0.50599998 0.352 0.45300001 7
0.48899999 0.38 0.43599999 7
0.47499999 0.40700001 0.42199999 12
0.52100003 0.336 0.47400001 1
0.49599999 0.36199999 0.44999999 5
0.48300001 0.39300001 0.43799999 5
0.46799999 0.421 0.42500001 12
0.51300001 0.34799999 0.472 0
0.50199997 0.38499999 0.463 2
0.48100001 0.41 0.44400001 3
0.44800001 0.421 0.41499999 10
0.50300002 0.35800001 0.46900001 0
0.465 0.41499999 0.43700001 3
0.45100001 0.44400001 0.428 4
0.449 0.419 0.43099999 1
0.44100001 0.454 0.428 3
1.585 -0.185 0.78799999 56
1.493 -0.183 0.79400003 60
1.4170001 -0.132 0.70200002 53
1.425 -0.186 0.80900002 64
1.3430001 -0.133 0.71100003 48
1.615 -0.112 0.79799998 2
1.347 -0.19599999 0.81699997 56
1.279 -0.138 0.72399998 51
1.53 -0.116 0.80800003 0
1.228 -0.152 0.741 13
1.438 -0.123 0.81 0
1.2970001 -0.132 0.77899998 1
0.48800001 0.43599999 0.32100001 12
0.47499999 0.44400001 0.31900001 12
0.509 0.41 0.34200001 10
0.49000001 0.43700001 0.33199999 10
0.465 0.45500001 0.31900001 12
0.495 0.41800001 0.338 11
0.45100001 0.46200001 0.317 13
0.48100001 0.426 0.33399999 10
0.46799999 0.45699999 0.331 11
0.442 0.47400001 0.31799999 13
0.5 0.41499999 0.34599999 12
0.47499999 0.44 0.336 9
0.456 0.46700001 0.329 11
0.43099999 0.48500001 0.31900001 12
0.45699999 0.442 0.329 11
0.472 0.43000001 0.33700001 13
0.454 0.461 0.33399999 10
0.43399999 0.486 0.32800001 10
0.40599999 0.50099999 0.317 11
0.43599999 0.463 0.32800001 10
0.42199999 0.49599999 0.32800001 10
0.454 0.45300001 0.336 12
0.43399999 0.48199999 0.333 9
0.37900001 0.514 0.315 12
0.41600001 0.484 0.32699999 10
0.396 0.51099998 0.32499999 10
0.36399999 0.51800001 0.31200001 11
0.435 0.477 0.336 12
0.40599999 0.49599999 0.32800001 9
0.38 0.51300001 0.31999999 10
0.354 0.52999997 0.315 11
0.38299999 0.49000001 0.317 10
0.403 0.48500001 0.32499999 11
0.384 0.514 0.32699999 9
0.35600001 0.53100002 0.31999999 10
0.32100001 0.53100002 0.30700001 11
0.40000001 0.50400001 0.331 12
0.36700001 0.51700002 0.322 8
0.33899999 0.53100002 0.315 10
0.347 0.514 0.31400001 10
0.294 0.54100001 0.30500001 12
0.37099999 0.51499999 0.324 11
0.34299999 0.53299999 0.31999999 9
0.315 0.54699999 0.315 10
0.354 0.51599997 0.31799999 12
0.32800001 0.537 0.31799999 9
0.266 0.54699999 0.301 11
0.34299999 0.52700001 0.31799999 11
0.317 0.54699999 0.31799999 9
0.28799999 0.55800003 0.31400001 10
0.292 0.53200001 0.30500001 10
0.27399999 0.56199998 0.31200001 9
0.23999999 0.55800003 0.30199999 10
0.317 0.54100001 0.315 11
0.28799999 0.55400002 0.31299999 9
0.29899999 0.537 0.30700001 11
0.23800001 0.55000001 0.29800001 9
0.214 0.56599998 0.301 10
0.28999999 0.55299997 0.31099999 11
0.25799999 0.55699998 0.30599999 8
0.241 0.55400002 0.30000001 9
0.21699999 0.57200003 0.30399999 9
0.25999999 0.55800003 0.30399999 10
0.23100001 0.56599998 0.303 8
0.23199999 0.56599998 0.30000001 10
0.20100001 0.56599998 0.296 8
0.214 0.56 0.29300001 11
2.152 -0.167 0.69800001 51
1.934 -0.198 0.73299998 50
2.0320001 -0.15800001 0.713 49
1.938 -0.104 0.62699997 55
1.836 -0.199 0.745 52
1.932 -0.154 0.72899997 63
1.8609999 -0.102 0.65100002 23
2.319 -0.068999998 0.74900001 110
1.812 -0.15700001 0.73199999 84
1.781 -0.102 0.66900003 10
2.329 -0.074000001 0.81199998 102
2.322 -0.014 0.74900001 107
1.689 -0.11 0.67900002 17
2.3269999 -0.081 0.87199998 95
2.3299999 -0.018999999 0.81099999 103
2.3199999 0.041000001 0.74800003 100
2.3410001 -0.101 0.93699998 91
2.3369999 -0.028999999 0.87300003 99
2.329 0.033 0.80900002 106
2.3139999 0.096000001 0.74599999 94
2.3559999 -0.050999999 0.93900001 94
2.3369999 0.022 0.87099999 92
2.326 0.086999997 0.80699998 94
2.316 0.152 0.74699998 102
2.3529999 0 0.935 86
2.3329999 0.074000001 0.86699998 88
2.323 0.141 0.80599999 88
2.3139999 0.207 0.74699998 93
2.3529999 0.050000001 0.93199998 87
2.336 0.127 0.86699998 97
2.3199999 0.19499999 0.80500001 91
2.3340001 0.26499999 0.755 103
2.3529999 0.101 0.92900002 92
2.3329999 0.17900001 0.86500001 91
2.3399999 0.25099999 0.81199998 101
2.329 0.32100001 0.755 98
2.3469999 0.152 0.92500001 89
2.348 0.234 0.87 84
2.3369999 0.30599999 0.81199998 109
2.3299999 0.37799999 0.75800002 100
2.3440001 0.20299999 0.92199999 83
2.3529999 0.28799999 0.87199998 90
2.3329999 0.36000001 0.81199998 108
2.326 0.435 0.75999999 99
2.362 0.25600001 0.92699999 94
2.3540001 0.34200001 0.87300003 82
2.329 0.41499999 0.81300002 91
2.316 0.49000001 0.75999999 102
2.3570001 0.308 0.92400002 88
2.346 0.39399999 0.87099999 84
2.3280001 0.47099999 0.815 88
2.3169999 0.54799998 0.764 81
2.3570001 0.361 0.92400002 88
2.3410001 0.44800001 0.87 85
2.326 0.52700001 0.81699997 90
2.3529999 0.41299999 0.92199999 86
2.332 0.50099999 0.86799997 82
2.3239999 0.58399999 0.81900001 23
2.348 0.465 0.92000002 84
2.3310001 0.55599999 0.87 85
0.59200001 0.185 0.199 11
2.3399999 0.51700002 0.91799998 85
2.3369999 0.57099998 0.917 150
0.59500003 0.19400001 0.213 10
0.59799999 0.219 0.204 11
0.59600002 0.2 0.226 10
0.611 0.23100001 0.222 9
0.597 0.25099999 0.208 11
0.59899998 0.20299999 0.237 12
0.60299999 0.233 0.23100001 9
0.61000001 0.26300001 0.22499999 10
0.59500003 0.28400001 0.211 11
0.60100001 0.27599999 0.223 10
0.58899999 0.29899999 0.211 0
0.60500002 0.236 0.241 11
0.59100002 0.245 0.237 3
0.22400001 0.52600002 0.18700001 10
0.223 0.52600002 0.186 8
0.206 0.55400002 0.19400001 10
0.221 0.52200001 0.182 8
0.207 0.56 0.193 8
0.223 0.52600002 0.178 9
0.207 0.56099999 0.191 8
0.20200001 0.54799998 0.18099999 9
1.872 -0.171 0.324 79
1.9170001 -0.191 0.42899999 83
1.847 -0.155 0.366 72
1.813 -0.122 0.31299999 93
1.853 -0.142 0.412 77
1.8200001 -0.11 0.359 91
1.809 -0.078000002 0.31200001 86
1.9299999 -0.14399999 0.47600001 153
1.826 -0.098999999 0.40400001 90
1.913 -0.071000002 0.37599999 155
2.2690001 -0.044 0.38999999 111
1.8660001 -0.097999997 0.45699999 150
2.2190001 -0.071000002 0.48899999 137
2.2160001 -0.029999999 0.43399999 145
2.26 0.0099999998 0.38800001 111
2.2739999 -0.07 0.55400002 102
2.1930001 -0.02 0.48100001 150
2.266 0.021 0.44299999 104
2.256 0.064000003 0.38800001 103
2.276 -0.021 0.551 106
2.221 0.028000001 0.48500001 150
2.266 0.074000001 0.442 103
2.2579999 0.118 0.38800001 106
2.2820001 0.028000001 0.55000001 89
2.2750001 0.079999998 0.49599999 96
2.263 0.126 0.44100001 105
2.253 0.17200001 0.38800001 100
2.283 0.078000002 0.54799998 101
2.273 0.132 0.49399999 93
2.26 0.17900001 0.44 107
2.2720001 0.229 0.39199999 103
2.2850001 0.12800001 0.546 85
2.267 0.183 0.491 89
2.283 0.234 0.44400001 104
2.2750001 0.285 0.39300001 110
2.277 0.177 0.542 90
2.2850001 0.236 0.49399999 83
2.277 0.287 0.44299999 102
2.266 0.33899999 0.39199999 104
2.2920001 0.229 0.54299998 81
2.2880001 0.289 0.49399999 93
2.2720001 0.34099999 0.442 97
2.2950001 0.28 0.542 84
2.2809999 0.34 0.493 87
2.2609999 0.39300001 0.44100001 89
2.289 0.33000001 0.53899997 77
2.2750001 0.39199999 0.491 82
0.59100002 0.132 0.103 10
2.283 0.38100001 0.537 84
0.588 0.13 0.115 9
2.29 0.43399999 0.537 109
0.59200001 0.162 0.105 10
0.58600003 0.142 0.126 9
0.597 0.162 0.118 8
0.58700001 0.192 0.106 10
0.59799999 0.154 0.14 10
0.59200001 0.17200001 0.12800001 9
0.59899998 0.193 0.119 8
0.58399999 0.222 0.107 11
0.597 0.182 0.139 10
0.59500003 0.20299999 0.13 9
0.60000002 0.22400001 0.121 9
0.58399999 0.255 0.109 11
0.597 0.212 0.139 11
0.59600002 0.234 0.131 9
0.59899998 0.257 0.122 9
0.58700001 0.273 0.111 11
0.58600003 0.23800001 0.13699999 11
0.597 0.266 0.133 10
0.59600002 0.289 0.124 9
0.58700001 0.308 0.114 11
0.58200002 0.32300001 0.115 12
0.59899998 0.27399999 0.141 11
0.59500003 0.29800001 0.134 10
0.59899998 0.32499999 0.127 10
0.59299999 0.30399999 0.141 11
0.59200001 0.331 0.13500001 10
0.58499998 0.33399999 0.14 12
0.57599998 0.35800001 0.134 1
0.221 0.51499999 0.101 9
0.219 0.51899999 0.1 7
0.204 0.54400003 0.105 9
0.215 0.51700002 0.097000003 7
0.205 0.55699998 0.105 7
0.213 0.51599997 0.090999998 8
1.83 -0.183 0.134 86
1.7640001 -0.161 0.079999998 90
1.857 -0.18000001 0.237 84
1.79 -0.153 0.17900001 96
1.779 -0.13600001 0.12899999 98
1.7539999 -0.117 0.079000004 79
1.7970001 -0.13500001 0.227 101
1.786 -0.113 0.177 103
1.778 -0.094999999 0.12800001 101
1.7690001 -0.075999998 0.079000004 79
1.798 -0.094999999 0.22499999 102
1.791 -0.071999997 0.176 84
1.893 -0.056000002 0.13600001 155
2.2249999 -0.041999999 0.1 107
2.198 -0.068999998 0.273 150
2.237 -0.039000001 0.219 109
2.2309999 -0.014 0.15899999 117
2.2179999 0.011 0.098999999 113
2.2449999 -0.021 0.27599999 108
2.2379999 0.0099999998 0.21699999 103
2.2279999 0.037 0.15800001 105
2.2160001 0.064000003 0.098999999 113
2.2479999 0.028000001 0.27399999 109
2.2349999 0.059999999 0.21600001 103
2.2290001 0.089000002 0.15700001 111
2.2149999 0.117 0.098999999 105
2.2420001 0.077 0.271 105
2.233 0.111 0.214 109
2.2260001 0.141 0.15700001 112
2.2119999 0.171 0.098999999 103
2.244 0.126 0.26899999 105
2.2320001 0.162 0.213 103
2.22 0.193 0.155 104
2.23 0.226 0.1 89
2.2409999 0.176 0.26699999 101
2.2279999 0.213 0.211 107
2.25 0.226 0.266 80
2.244 0.266 0.211 89
0.58899999 0.088 0.026000001 10
2.2579999 0.27700001 0.26499999 107
0.58499998 0.092 0.039999999 9
0.58999997 0.097000003 0.055 9
0.58499998 0.117 0.027000001 10
0.60000002 0.1 0.068999998 9
0.588 0.121 0.041000001 9
0.58499998 0.123 0.054000001 8
0.58600003 0.147 0.027000001 10
0.60100001 0.12800001 0.068000004 10
0.58499998 0.149 0.039999999 9
0.583 0.15099999 0.052999999 8
0.588 0.177 0.028000001 10
0.59500003 0.154 0.067000002 10
0.58499998 0.17900001 0.041000001 9
0.58499998 0.18000001 0.052999999 9
0.583 0.207 0.028000001 10
0.58999997 0.18099999 0.064999998 10
0.58200002 0.208 0.041000001 9
0.58099997 0.20900001 0.052999999 9
0.579 0.237 0.028999999 10
0.59200001 0.211 0.064999998 10
0.583 0.23999999 0.041000001 9
0.58099997 0.23899999 0.052999999 9
0.57999998 0.271 0.029999999 11
0.58899999 0.23999999 0.064000003 10
0.579 0.27000001 0.041000001 10
0.579 0.27000001 0.052999999 9
0.58600003 0.27000001 0.063000001 10
0.58899999 0.30899999 0.043000001 9
0.57599998 0.301 0.052000001 10
0.57800001 0.29800001 0.061999999 11
0.215 0.51200002 0.033 8
0.20900001 0.51499999 0.032000002 7
0.215 0.50999999 0.030999999 7
0.213 0.51499999 0.027000001 8
1.827 -0.198 -0.034000002 87
1.7460001 -0.182 -0.090000004 52
1.771 -0.17 0.077 81
1.742 -0.156 0.021 87
1.7359999 -0.147 -0.033 95
1.725 -0.138 -0.088 78
1.765 -0.13 0.075999998 100
1.74 -0.116 0.021 84
1.734 -0.106 -0.033 84
1.724 -0.096000001 -0.088 74
1.753 -0.090000004 0.074000001 79
1.755 -0.077 0.02 79
1.773 -0.067000002 -0.034000002 73
1.88 -0.059 -0.096000001 154
1.909 -0.056000002 0.079000004 153
2.221 -0.046999998 0.024 106
2.201 -0.032000002 -0.043000001 110
2.194 -0.016000001 -0.113 111
2.224 -0.016000001 0.090000004 109
2.214 0.003 0.023 108
2.201 0.018999999 -0.044 111
2.191 0.035999998 -0.113 116
2.2219999 0.032000002 0.089000002 105
2.214 0.052999999 0.022 110
2.2019999 0.071000002 -0.045000002 124
2.184 0.088 -0.112 114
2.22 0.081 0.086999997 110
2.204 0.103 0.021 112
2.198 0.122 -0.045000002 112
2.1849999 0.141 -0.112 110
2.2190001 0.13 0.085000001 108
2.2030001 0.154 0.018999999 125
2.194 0.17299999 -0.046 107
2.1830001 0.193 -0.112 101
2.2119999 0.17900001 0.082999997 105
2.2090001 0.205 0.017999999 105
2.214 0.227 -0.046999998 101
2.201 0.248 -0.113 105
2.2309999 0.23 0.082000002 100
2.223 0.25799999 0.017000001 109
2.211 0.27900001 -0.046999998 107
2.2030001 0.303 -0.114 105
2.2190001 0.27900001 0.079000004 118
2.217 0.308 0.016000001 99
2.2060001 0.33199999 -0.048 113
2.1949999 0.35499999 -0.113 109
2.2149999 0.359 0.015 106
2.2030001 0.384 -0.048999999 108
2.1919999 0.41 -0.113 92
0.597 0.102 0.02 10
2.2 0.43599999 -0.048999999 105
2.1860001 0.463 -0.113 89
2.1949999 0.49000001 -0.050000001 100
2.1819999 0.51700002 -0.113 86
0.59200001 0.12800001 0.018999999 10
0.597 0.139 0.003 9
2.1730001 0.57099998 -0.113 93
0.588 0.155 0.017999999 10
0.59500003 0.168 0.0020000001 9
0.59200001 0.176 -0.014 8
0.58600003 0.183 0.016000001 10
0.59200001 0.19599999 0.001 9
0.59399998 0.208 -0.014 8
0.58499998 0.215 -0.029999999 10
0.588 0.213 0.015 11
0.59100002 0.227 0 9
0.59399998 0.23899999 -0.015 9
0.58099997 0.24600001 -0.029999999 10
0.58200002 0.241 0.014 11
0.588 0.257 0 9
0.58899999 0.27000001 -0.015 9
0.58099997 0.271 0.013 11
0.21699999 0.505 -0.016000001 8
0.211 0.51099998 -0.014 7
0.213 0.50599998 -0.013 7
0.20999999 0.51800001 -0.014 8
1.772 -0.18099999 -0.003 86
1.732 -0.169 -0.063000001 75
1.804 -0.17 -0.12800001 82
1.887 -0.17200001 -0.20299999 151
1.735 -0.138 -0.003 111
1.723 -0.12899999 -0.061999999 76
1.831 -0.13 -0.13 80
1.868 -0.125 -0.20100001 44
1.7309999 -0.098999999 -0.0040000002 87
1.724 -0.089000002 -0.063000001 76
1.753 -0.082999997 -0.125 66
1.7640001 -0.075000003 -0.189 48
1.831 -0.064000003 -0.0049999999 153
1.993 -0.057 -0.072999999 152
2.1760001 -0.052000001 -0.155 107
2.1719999 -0.039999999 -0.233 87
2.207 -0.028000001 -0.0070000002 118
2.191 -0.013 -0.081 110
2.1860001 -0.001 -0.156 113
2.1760001 0.011 -0.234 92
2.204 0.02 -0.0080000004 114
2.1949999 0.035999998 -0.082000002 125
2.1860001 0.048999999 -0.15700001 113
2.1689999 0.063000001 -0.233 90
2.2049999 0.068999998 -0.0089999996 121
2.191 0.086999997 -0.082000002 126
2.1789999 0.1 -0.15700001 113
2.1670001 0.115 -0.233 102
2.2019999 0.118 -0.0099999998 121
2.187 0.13600001 -0.082999997 120
2.1800001 0.152 -0.15700001 114
2.165 0.167 -0.234 85
2.198 0.167 -0.011 116
2.1849999 0.186 -0.083999999 116
2.1760001 0.20299999 -0.15800001 85
2.174 0.221 -0.235 58
2.2019999 0.21699999 -0.012 89
2.2130001 0.23999999 -0.086000003 119
2.194 0.25600001 -0.16 103
2.1819999 0.27500001 -0.236 83
2.2130001 0.26699999 -0.013 131
2.2019999 0.28999999 -0.086000003 112
2.188 0.30700001 -0.16 107
2.184 0.32800001 -0.237 73
2.2119999 0.31799999 -0.014 107
2.1989999 0.34 -0.086999997 98
2.191 0.361 -0.161 101
2.1730001 0.38 -0.237 74
2.2119999 0.368 -0.016000001 108
2.1960001 0.39199999 -0.088 94
2.1819999 0.412 -0.162 86
2.175 0.435 -0.23800001 73
2.207 0.419 -0.017000001 105
2.1860001 0.442 -0.089000002 101
2.1760001 0.46399999 -0.162 84
2.164 0.48699999 -0.237 65
2.1889999 0.495 -0.090000004 95
2.174 0.51800001 -0.163 86
2.158 0.54100001 -0.23800001 60
2.1789999 0.54500002 -0.090999998 94
2.1659999 0.56999999 -0.164 77
2.168 0.59600002 -0.092 3
1.757 -0.18099999 -0.015 96
1.728 -0.171 -0.074000001 76
1.8329999 -0.176 -0.142 73
1.915 -0.177 -0.21699999 152
1.726 -0.139 -0.014 107
1.706 -0.12899999 -0.072999999 87
1.847 -0.134 -0.14300001 72
1.899 -0.12899999 -0.21600001 130
1.725 -0.1 -0.014 100
1.717 -0.090999998 -0.072999999 84
1.756 -0.086000003 -0.13600001 75
1.757 -0.077 -0.2 40
1.821 -0.064999998 -0.015 151
1.903 -0.057 -0.081 154
2.102 -0.052999999 -0.162 150
2.1700001 -0.043000001 -0.24699999 73
2.2060001 -0.029999999 -0.017999999 123
2.1889999 -0.016000001 -0.093000002 125
2.1830001 -0.0040000002 -0.169 115
2.1700001 0.0080000004 -0.24699999 93
2.201 0.018999999 -0.017999999 119
2.1930001 0.033 -0.093000002 126
2.1800001 0.046 -0.169 124
2.1719999 0.061000001 -0.24699999 88
2.2 0.067000002 -0.017000001 123
2.191 0.083999999 -0.093000002 124
2.1830001 0.097000003 -0.169 113
2.1689999 0.113 -0.248 91
2.1989999 0.117 -0.017000001 125
2.1819999 0.133 -0.093000002 130
2.1789999 0.149 -0.169 108
2.1659999 0.16500001 -0.248 79
2.1960001 0.16599999 -0.017999999 123
2.1830001 0.184 -0.093000002 110
2.174 0.199 -0.169 98
2.164 0.21699999 -0.248 53
2.1930001 0.214 -0.017999999 106
2.21 0.237 -0.094999999 114
2.1900001 0.25299999 -0.171 105
2.188 0.273 -0.252 69
2.2149999 0.26699999 -0.017999999 123
2.2 0.287 -0.094999999 111
2.198 0.30599999 -0.17200001 106
2.1789999 0.32499999 -0.252 64
2.207 0.31600001 -0.017999999 114
2.1989999 0.338 -0.094999999 113
2.1900001 0.35699999 -0.17200001 98
2.1719999 0.37799999 -0.252 67
2.2 0.36500001 -0.018999999 116
2.1900001 0.38800001 -0.094999999 101
2.181 0.40900001 -0.17200001 81
2.1719999 0.43099999 -0.25299999 63
2.2079999 0.417 -0.018999999 111
2.191 0.44 -0.096000001 95
2.175 0.461 -0.17299999 82
2.1659999 0.48500001 -0.25299999 57
2.188 0.49200001 -0.096000001 97
2.175 0.51499999 -0.17399999 84
2.1619999 0.53899997 -0.25400001 62
2.1830001 0.54299998 -0.097000003 89
2.1659999 0.56599998 -0.17399999 85
2.1559999 0.59299999 -0.255 8
2.1789999 0.59600002 -0.097000003 11
