# .PCD v0.7 - Point Cloud Data file format
VERSION 0.7
FIELDS x y z intensity
SIZE 4 4 4 4
TYPE F F F F
COUNT 1 1 1 1
WIDTH 1895
HEIGHT 1
VIEWPOINT 0 0 0 1 0 0 0
POINTS 1895
DATA ascii
0.83600003 -0.454 0.53600001 10
0.87699997 -0.46000001 0.52100003 8
0.90600002 -0.45699999 0.498 8
0.84899998 -0.45899999 0.58200002 8
0.884 -0.456 0.56 8
0.91799998 -0.454 0.53799999 8
0.95099998 -0.45199999 0.51599997 8
0.89099997 -0.458 0.60299999 8
0.92900002 -0.45300001 0.57999998 8
0.96700001 -0.45100001 0.56 8
1.007 -0.449 0.53899997 9
0.93199998 -0.45500001 0.62300003 9
0.97399998 -0.449 0.60100001 8
1.017 -0.44600001 0.58200002 9
1.0650001 -0.44499999 0.56300002 9
0.97299999 -0.44999999 0.64300001 9
1.025 -0.44499999 0.625 8
1.082 -0.44499999 0.61199999 8
1.143 -0.44499999 0.59799999 9
1.03 -0.44999999 0.67299998 10
1.089 -0.44400001 0.65799999 8
1.153 -0.44400001 0.64499998 9
1.225 -0.44400001 0.634 9
1.089 -0.449 0.704 10
1.155 -0.442 0.69 8
1.227 -0.44 0.68000001 8
1.301 -0.43700001 0.667 9
1.147 -0.44499999 0.73500001 10
1.228 -0.43900001 0.727 8
1.3099999 -0.43700001 0.71899998 8
1.397 -0.43200001 0.70899999 9
1.2180001 -0.44299999 0.77200001 9
1.311 -0.43599999 0.76899999 8
1.404 -0.43200001 0.764 8
1.51 -0.428 0.76099998 39
1.288 -0.43700001 0.80900002 10
1.4 -0.43200001 0.81400001 60
1.4910001 -0.42199999 0.80500001 67
1.581 -0.40700001 0.79000002 53
1.318 -0.417 0.82099998 57
1.411 -0.40200001 0.81400001 57
1.495 -0.38600001 0.80000001 61
1.5880001 -0.36899999 0.78799999 52
1.3279999 -0.389 0.81999999 54
1.42 -0.37 0.81300002 58
1.497 -0.34999999 0.796 61
1.595 -0.331 0.78600001 54
1.347 -0.36399999 0.82499999 71
1.429 -0.33899999 0.81199998 58
1.511 -0.317 0.79799998 62
1.601 -0.292 0.78399998 60
1.353 -0.33500001 0.82300001 66
1.432 -0.30599999 0.80900002 60
1.5140001 -0.28099999 0.79500002 56
1.602 -0.25299999 0.78100002 6
1.352 -0.30399999 0.81599998 56
1.444 -0.27599999 0.81 23
1.516 -0.245 0.792 52
1.613 -0.21600001 0.78299999 54
1.349 -0.27399999 0.81 9
1.451 -0.244 0.81 31
1.529 -0.212 0.79500002 55
0 0 0 0
1.365 -0.24699999 0.81400001 53
1.449 -0.20999999 0.80400002 59
1.52 -0.175 0.78600001 59
0.58099997 -0.048999999 0.28 11
1.3710001 -0.21799999 0.81199998 54
1.45 -0.178 0.801 62
0 0 0 0
0.58499998 -0.035999998 0.28099999 11
1.378 -0.189 0.81199998 54
1.303 -0.13 0.71700001 36
3.073 -0.211 1.579 82
3.049 -0.115 1.462 6
1.243 -0.14300001 0.72899997 60
1.495 -0.116 0.81999999 0
3.0780001 -0.14 1.577 53
3.052 -0.043000001 1.462 97
1.387 -0.13 0.81 1
3.0910001 -0.17200001 1.689 105
3.0610001 -0.068999998 1.5650001 102
3.0469999 0.028000001 1.4579999 100
3.0869999 -0.223 1.795 115
3.0769999 -0.102 1.676 56
3.0599999 0.001 1.562 94
3.043 0.101 1.456 93
3.0869999 -0.156 1.788 101
3.0799999 -0.034000002 1.674 103
3.0550001 0.071000002 1.558 100
3.0380001 0.17299999 1.454 100
3.0899999 -0.089000002 1.784 97
3.0710001 0.034000002 1.666 99
3.046 0.141 1.553 102
3.0380001 0.245 1.456 98
3.092 -0.023 1.779 108
3.0680001 0.102 1.6619999 98
3.05 0.212 1.5549999 91
3.0309999 0.317 1.455 96
3.0869999 0.043000001 1.772 109
3.066 0.171 1.659 102
3.046 0.28200001 1.554 103
3.026 0.389 1.455 94
3.0899999 0.109 1.77 111
3.063 0.23899999 1.6569999 98
3.039 0.352 1.552 99
3.0220001 0.461 1.4579999 100
3.0869999 0.177 1.765 108
3.056 0.30700001 1.653 100
3.04 0.42300001 1.5549999 98
3.016 0.53299999 1.46 111
3.079 0.243 1.758 102
3.0569999 0.37599999 1.655 102
3.0309999 0.493 1.554 100
3.01 0.60600001 1.4630001 102
3.079 0.31 1.757 119
3.0510001 0.44499999 1.653 98
3.03 0.565 1.558 104
3.0109999 0.68099999 1.47 97
3.0710001 0.37799999 1.751 95
3.0480001 0.51499999 1.653 98
3.027 0.63700002 1.561 95
3.006 0.755 1.475 107
3.0710001 0.44600001 1.751 99
3.05 0.58600003 1.658 95
3.026 0.70999998 1.567 93
3.006 0.82999998 1.485 102
3.0680001 0.514 1.75 112
3.0409999 0.65600002 1.6569999 88
3.02 0.78200001 1.571 94
3.007 0.90799999 1.494 100
3.0580001 0.58099997 1.7460001 100
3.0369999 0.72600001 1.66 93
3.0190001 0.85600001 1.5779999 96
2.9960001 0.98199999 1.5 98
3.056 0.64999998 1.747 113
3.0420001 0.80000001 1.668 93
3.0179999 0.93099999 1.587 100
2.997 1.0599999 1.512 95
3.05 0.72000003 1.7460001 112
3.0320001 0.87 1.67 96
3.017 1.008 1.596 87
3.0009999 1.142 1.528 106
3.0420001 0.78899997 1.7460001 119
3.0280001 0.94300002 1.675 105
3.016 1.085 1.6059999 94
2.994 1.221 1.538 118
3.0380001 0.85900003 1.749 129
3.016 1.015 1.677 69
3.0009999 1.159 1.61 110
2.984 1.299 1.548 116
3.0420001 0.93400002 1.757 115
3.0150001 1.09 1.686 105
2.9960001 1.237 1.6210001 106
2.9809999 1.382 1.563 102
3.033 1.005 1.758 129
3.0109999 1.1670001 1.6950001 114
2.997 1.318 1.636 99
2.9860001 1.47 1.5829999 114
3.03 1.079 1.7640001 127
3.0139999 1.247 1.7079999 114
3.0020001 1.403 1.653 102
2.977 1.553 1.597 102
3.0309999 1.156 1.773 128
3.0109999 1.326 1.719 93
2.9909999 1.483 1.664 99
2.9809999 1.6440001 1.62 125
3.023 1.23 1.777 126
3.0079999 1.406 1.7309999 106
2.9990001 1.574 1.686 101
2.9809999 1.737 1.642 112
3.0120001 1.3049999 1.7819999 123
3.0079999 1.49 1.7460001 113
2.993 1.66 1.702 98
2.984 1.8329999 1.6670001 110
3.006 1.383 1.789 104
3.006 1.574 1.761 114
2.9960001 1.753 1.725 112
2.987 1.933 1.693 121
2.983 1.4529999 1.788 98
3.0020001 1.661 1.776 130
3.003 1.85 1.751 127
2.9890001 2.0339999 1.722 113
2.957 1.524 1.786 95
2.99 1.743 1.788 104
2.9949999 1.942 1.77 134
2.908 2.079 1.7029999 117
2.9449999 1.602 1.794 92
2.9619999 1.818 1.791 88
2.9920001 2.039 1.793 137
2.7579999 2.0710001 1.6440001 77
2.914 1.671 1.79 92
2.9360001 1.895 1.7970001 100
2.904 2.0780001 1.767 129
2.619 2.0639999 1.59 95
2.8929999 1.748 1.795 84
2.9100001 1.973 1.803 99
2.7509999 2.066 1.701 93
2.4890001 2.056 1.54 97
2.882 1.831 1.806 41
2.885 2.0539999 1.812 38
2.6159999 2.0599999 1.6440001 42
2.375 2.056 1.498 49
0 0 0 0
2.7650001 2.0650001 1.761 6
2.4960001 2.0599999 1.596 5
0 0 0 0
0 0 0 0
0 0 0 0
0 0 0 0
0 0 0 0
0.46200001 0.34 0.30000001 9
0.454 0.37200001 0.29800001 7
0.43099999 0.38999999 0.28600001 9
0.40400001 0.40200001 0.27200001 9
0 0 0 0
0 0 0 0
0 0 0 0
0 0 0 0
0.433 0.34999999 0.289 9
0.42199999 0.38 0.287 8
0.40099999 0.398 0.27700001 8
0.37400001 0.40900001 0.26499999 10
0 0 0 0
0 0 0 0
0 0 0 0
0 0 0 0
0.41800001 0.37 0.28799999 10
0.398 0.39199999 0.28099999 7
0.377 0.41 0.273 8
0.315 0.377 0.235 7
0 0 0 0
0 0 0 0
0 0 0 0
0 0 0 0
0.391 0.38 0.278 9
0.37400001 0.40400001 0.27599999 7
0.324 0.38699999 0.24699999 6
0.29499999 0.38800001 0.233 7
0 0 0 0
0 0 0 0
0 0 0 0
0 0 0 0
0.37 0.39399999 0.27399999 9
0.329 0.389 0.25400001 6
0.303 0.398 0.245 6
0.28099999 0.40700001 0.237 7
0 0 0 0
0 0 0 0
0 0 0 0
0 0 0 0
0.33500001 0.391 0.259 8
0.30199999 0.39399999 0.24600001 6
0.287 0.414 0.24600001 6
0.26499999 0.42500001 0.241 8
0 0 0 0
0 0 0 0
0 0 0 0
0 0 0 0
0.30599999 0.39300001 0.249 8
0.289 0.414 0.249 7
0.26300001 0.419 0.241 6
0.236 0.41999999 0.23199999 7
0 0 0 0
0 0 0 0
0 0 0 0
0 0 0 0
0.289 0.40900001 0.24699999 8
0.266 0.421 0.245 7
0.233 0.412 0.23 6
0.21600001 0.42899999 0.23100001 7
0 0 0 0
0 0 0 0
0 0 0 0
0 0 0 0
0.26699999 0.41800001 0.243 8
0.237 0.41600001 0.234 6
0.214 0.42199999 0.23 6
0.193 0.43200001 0.228 7
0 0 0 0
0 0 0 0
0 0 0 0
0 0 0 0
0.23800001 0.41499999 0.233 7
0.21799999 0.42899999 0.234 6
0.19400001 0.43200001 0.229 6
0.176 0.44600001 0.23199999 7
0 0 0 0
0 0 0 0
0 0 0 0
0 0 0 0
0.21699999 0.42300001 0.23 7
0.197 0.43599999 0.23100001 6
0.18000001 0.45500001 0.236 6
0.15800001 0.461 0.236 7
0 0 0 0
0 0 0 0
0 0 0 0
0 0 0 0
0.19400001 0.426 0.22400001 7
0.18000001 0.454 0.235 6
0.16 0.465 0.237 6
0.14300001 0.48800001 0.24699999 7
0 0 0 0
0 0 0 0
0 0 0 0
0 0 0 0
0.178 0.44600001 0.228 7
0.15899999 0.461 0.234 6
0.14300001 0.48899999 0.245 6
0.12 0.48899999 0.245 7
0 0 0 0
0 0 0 0
0 0 0 0
0 0 0 0
0.15899999 0.461 0.23 7
0.14300001 0.48699999 0.242 5
0.122 0.49900001 0.24699999 7
0.097999997 0.49599999 0.24600001 8
0 0 0 0
0 0 0 0
0 0 0 0
0 0 0 0
0.14 0.477 0.23199999 7
0.121 0.49700001 0.243 6
0.098999999 0.50400001 0.24600001 7
0.077 0.50599998 0.249 6
0 0 0 0
0 0 0 0
0 0 0 0
0 0 0 0
0.118 0.48899999 0.233 8
0.097999997 0.50300002 0.242 7
0.075000003 0.50400001 0.244 5
0.056000002 0.52700001 0.25799999 8
0 0 0 0
0 0 0 0
0 0 0 0
0 0 0 0
0.097000003 0.50199997 0.235 8
0.075000003 0.51200002 0.243 5
0.056000002 0.537 0.25799999 7
0.033 0.53399998 0.26100001 8
0 0 0 0
0 0 0 0
0 0 0 0
0 0 0 0
0.071000002 0.498 0.229 7
0.054000001 0.537 0.252 6
0.030999999 0.54299998 0.25999999 7
0.0089999996 0.55699998 0.273 8
0 0 0 0
0 0 0 0
0 0 0 0
0 0 0 0
0.048999999 0.523 0.237 7
0.028000001 0.53600001 0.25 7
0.0070000002 0.55500001 0.26499999 7
-0.015 0.59500003 0.29100001 10
0 0 0 0
0 0 0 0
0 0 0 0
0 0 0 0
0.024 0.51899999 0.233 7
0.003 0.55599999 0.257 7
-0.018999999 0.59799999 0.285 9
-0.043000001 0.61500001 0.30199999 9
0 0 0 0
0 0 0 0
0 0 0 0
-0.192 2.062 1.017 32
0 0.54799998 0.244 9
-0.023 0.59799999 0.27599999 8
-0.048 0.62300003 0.29699999 8
-0.23999999 2.0769999 1.028 41
0 0 0 0
0 0 0 0
-0.061999999 0.61500001 0.294 0
-0.287 2.0810001 1.033 40
-0.028999999 0.59399998 0.26300001 10
-0.054000001 0.63 0.28999999 8
-0.26800001 2.1670001 1.0369999 9
-0.336 2.092 1.043 39
0 0 0 0
-0.23899999 2.175 1.002 61
-0.31799999 2.168 1.04 74
-0.38299999 2.0929999 1.048 38
-0.059999999 0.62300003 0.27399999 10
-0.29100001 2.178 1.005 90
-0.37 2.1719999 1.045 84
-0.43000001 2.089 1.051 38
0 0 0 0
-0.34200001 2.174 1.0039999 73
-0.419 2.1670001 1.046 92
-0.43599999 1.905 0.963 28
-0.289 1.974 0.86900002 10
-0.39399999 2.171 1.0039999 92
-0.46399999 2.1359999 1.035 121
-0.47799999 1.8940001 0.963 69
-0.32499999 1.899 0.83600003 73
-0.44600001 2.171 1.006 82
-0.461 1.913 0.93099999 43
-0.51800001 1.8789999 0.96200001 66
-0.37099999 1.89 0.833 80
-0.46799999 2.0350001 0.94599998 150
-0.50700003 1.913 0.935 72
-0.579 1.936 0.99699998 150
-0.417 1.885 0.83200002 71
-0.48199999 1.891 0.88200003 84
-0.55199999 1.906 0.93699998 51
-0.68300003 2.1110001 1.096 44
-0.46399999 1.878 0.82999998 60
-0.52399999 1.873 0.87800002 66
-0.616 1.96 0.96899998 80
-0.70499998 2.027 1.061 87
-0.51700002 1.896 0.84100002 38
-0.58899999 1.929 0.90799999 122
-0.671 1.976 0.98400003 78
-0.73500001 1.973 1.04 34
-0.56800002 1.9 0.84600002 29
-0.63700002 1.923 0.91000003 150
-0.71799999 1.9680001 0.98699999 41
-0.75700003 1.904 1.013 74
-0.62400001 1.914 0.85600001 35
-0.68099999 1.906 0.90700001 145
-0.75400001 1.929 0.97500002 60
-0.82800001 1.9579999 1.051 150
-0.68099999 1.931 0.86799997 32
-0.72399998 1.885 0.903 118
-0.79400003 1.905 0.97100002 74
0 0 0 0
-0.736 1.9349999 0.87400001 30
-0.77100003 1.875 0.90499997 88
-0.94300002 2.1240001 1.092 52
-0.89700001 1.887 1.034 2
-0.79100001 1.9349999 0.88 31
-0.83099997 1.8940001 0.92199999 154
-0.88800001 1.885 0.97799999 21
-1.041 2.072 1.147 46
-0.85000002 1.944 0.88999999 32
-0.86799997 1.858 0.912 84
-1.061 2.1259999 1.115 79
-1.046 1.974 1.105 150
-0.90700001 1.9450001 0.898 31
-0.93400002 1.883 0.93300003 153
-1.012 1.9170001 1.016 150
-1.039 1.862 1.0549999 54
-0.97000003 1.9529999 0.90899998 31
-0.98299998 1.8710001 0.93599999 150
-1.036 1.86 0.99699998 22
-1.103 1.8789999 1.0779999 79
-1.033 1.959 0.92000002 29
-1.026 1.846 0.93300003 69
-1.091 1.859 1.008 48
-1.14 1.849 1.076 68
-1.092 1.954 0.92699999 28
-1.091 1.858 0.95099998 123
-1.141 1.848 1.015 44
-1.298 2.006 1.183 63
-1.156 1.956 0.93900001 45
-1.135 1.834 0.949 66
-1.302 2.0050001 1.1160001 60
-1.308 1.929 1.153 57
-1.16 1.857 0.90200001 48
-1.307 2.0039999 1.051 72
-1.316 1.9299999 1.09 56
-1.327 1.868 1.1339999 111
-1.319 2 0.98400003 75
-1.326 1.933 1.028 58
-1.324 1.85 1.0599999 127
-1.344 1.808 1.115 75
-1.344 1.9349999 0.96499997 61
-1.319 1.83 0.98799998 97
-1.337 1.7819999 1.0369999 94
-1.3200001 1.697 1.064 86
-1.329 1.817 0.92000002 79
-1.331 1.757 0.963 87
-1.319 1.679 0.99299997 75
-1.35 1.66 1.059 92
-1.329 1.727 0.88800001 68
-1.322 1.663 0.92699999 65
-1.36 1.652 0.99400002 74
-1.289 1.518 0.98500001 74
-1.331 1.645 0.86000001 67
-1.378 1.653 0.93699998 78
-1.284 1.4910001 0.91299999 55
-1.307 1.472 0.97299999 72
-1.392 1.637 0.87099999 83
-1.298 1.484 0.85699999 81
-1.325 1.47 0.91799998 67
-1.342 1.449 0.97600001 83
-1.319 1.477 0.801 69
-1.34 1.461 0.86000001 64
-1.318 1.397 0.889 98
-1.289 1.332 0.91600001 67
-1.365 1.455 0.80500001 73
-1.296 1.348 0.81 65
-1.3049999 1.322 0.86000001 61
-1.326 1.312 0.921 75
-1.311 1.331 0.75199997 71
-1.3329999 1.324 0.81199998 70
-1.345 1.302 0.86500001 69
-1.274 1.207 0.866 72
-1.359 1.314 0.759 79
-1.3 1.2309999 0.773 76
-1.299 1.2029999 0.81800002 62
-1.314 1.193 0.87599999 66
-1.309 1.205 0.713 75
-1.324 1.197 0.76899999 65
-1.347 1.192 0.829 59
-1.359 1.181 0.88800001 83
-1.362 1.194 0.72399998 79
-1.372 1.183 0.77899998 76
-1.38 1.166 0.83200002 68
-1.298 1.08 0.83200002 91
-1.402 1.17 0.72799999 89
-1.3049999 1.073 0.72600001 85
-1.295 1.046 0.76599997 74
-1.294 1.03 0.81400001 71
-1.317 1.046 0.66900003 79
-1.324 1.0369999 0.72100002 73
-1.331 1.026 0.773 76
-1.3329999 1.015 0.82499999 72
-1.36 1.026 0.67699999 84
-1.362 1.016 0.72799999 85
-1.365 1.0039999 0.778 79
-1.36 0.99000001 0.82800001 69
-1.3940001 1 0.68000001 80
-1.3890001 0.98699999 0.72899997 87
-1.375 0.96499997 0.77100003 71
-1.318 0.91600001 0.78899997 46
-1.358 0.92500001 0.64999998 55
-1.3279999 0.898 0.68400002 66
-1.3200001 0.88200003 0.72799999 65
-1.3150001 0.87300003 0.77499998 69
-1.3430001 0.86699998 0.63200003 79
-1.296 0.83200002 0.65700001 88
-1.2640001 0.80400002 0.685 74
-1.265 0.801 0.73500001 75
-1.3049999 0.79799998 0.60299999 78
-1.3049999 0.796 0.65100002 76
-1.299 0.78600001 0.69400001 77
-1.299 0.78399998 0.74400002 83
-1.302 0.75400001 0.59299999 76
-1.271 0.73400003 0.62400001 63
-1.2819999 0.73699999 0.67500001 60
-1.281 0.736 0.72399998 56
-1.327 0.72600001 0.59500003 72
-1.3279999 0.72600001 0.64200002 62
-1.322 0.72100002 0.68699998 61
-1.321 0.722 0.73699999 60
-1.391 0.71700001 0.61400002 69
-1.388 0.71700001 0.662 71
-1.3789999 0.713 0.70700002 69
-1.3710001 0.71100003 0.755 67
-1.405 0.68199998 0.61199999 75
-1.3710001 0.66799998 0.64600003 91
-1.3430001 0.65600002 0.68000001 82
-1.344 0.66100001 0.73100001 80
-1.319 0.60100001 0.56699997 75
-1.311 0.602 0.61000001 67
-1.301 0.59899998 0.65100002 66
-1.293 0.602 0.69599998 57
-1.376 0.58700001 0.58499998 14
-1.373 0.59200001 0.63099998 11
-1.367 0.59299999 0.676 11
-1.3609999 0.59799999 0.72399998 48
-1.408 0.56099999 0.59200001 84
-1.399 0.56400001 0.63599998 75
-1.396 0.56900001 0.68400002 73
-1.387 0.574 0.73000002 65
-1.4170001 0.52499998 0.58899999 76
-1.404 0.52899998 0.63200003 81
-1.398 0.53299999 0.67699999 72
-1.391 0.54100001 0.72500002 64
-1.4069999 0.48300001 0.57999998 66
-1.408 0.493 0.62800002 78
-1.399 0.498 0.67199999 68
-1.399 0.509 0.722 71
-1.408 0.44499999 0.57499999 65
-1.403 0.45500001 0.62 77
-1.396 0.461 0.66399997 72
-1.395 0.47400001 0.71399999 67
-1.317 0.382 0.53299999 14
-1.318 0.39399999 0.57700002 9
-1.374 0.41999999 0.648 11
-1.385 0.43799999 0.70200002 65
-1.387 0.366 0.55699998 15
-1.342 0.366 0.583 10
-1.309 0.368 0.61199999 11
-1.2920001 0.37799999 0.64999998 68
-1.4069999 0.33500001 0.56099999 20
-1.399 0.347 0.60299999 14
-1.386 0.35699999 0.64399999 13
-1.3660001 0.368 0.68199998 12
-1.398 0.29699999 0.55500001 14
-1.393 0.31200001 0.597 13
-1.39 0.32499999 0.64099997 14
-1.3789999 0.33899999 0.68400002 66
-1.393 0.26100001 0.55000001 20
-1.38 0.27500001 0.588 13
-1.386 0.29100001 0.63499999 13
-1.378 0.308 0.67799997 14
-1.3380001 0.21799999 0.52499998 11
-1.368 0.23999999 0.57999998 11
-1.367 0.255 0.62300003 13
-1.369 0.27500001 0.67000002 68
-1.319 0.182 0.51499999 19
-1.313 0.198 0.55299997 12
-1.312 0.214 0.59500003 11
-1.36 0.243 0.66100001 13
-1.347 0.153 0.52499998 13
-1.324 0.168 0.55599999 11
-1.309 0.184 0.58999997 12
-1.2970001 0.20299999 0.62800002 13
-1.3710001 0.122 0.53299999 13
-1.352 0.14 0.56599998 12
-1.335 0.15700001 0.60000002 12
-1.3049999 0.175 0.62800002 12
-1.39 0.090000004 0.53899997 14
-1.373 0.11 0.57200003 13
-1.3559999 0.12899999 0.60699999 12
-1.325 0.149 0.63499999 12
-1.388 0.057 0.537 14
-1.376 0.078000002 0.57200003 13
-1.367 0.098999999 0.61000001 13
-1.352 0.122 0.64499998 13
-1.377 0.023 0.53200001 13
-1.377 0.046 0.57200003 13
-1.372 0.068000004 0.61000001 13
-1.3609999 0.093999997 0.64700001 13
-1.34 -0.0089999996 0.51800001 12
-1.354 0.014 0.56199998 11
-1.368 0.037 0.60699999 13
-1.363 0.064000003 0.64499998 13
-1.3329999 -0.039999999 0.51499999 13
-1.322 -0.016000001 0.54799998 12
-1.327 0.0060000001 0.588 10
-1.354 0.034000002 0.63999999 13
-1.375 -0.075000003 0.53200001 13
-1.337 -0.046999998 0.55299997 10
-1.317 -0.022 0.58200002 12
-1.317 0.0049999999 0.62 11
-1.302 -0.102 0.505 12
-1.377 -0.081 0.56999999 13
-1.34 -0.052999999 0.59200001 10
-1.304 -0.023 0.61299998 12
-1.2920001 -0.132 0.50199997 12
-1.29 -0.106 0.53500003 11
-1.37 -0.085000001 0.60500002 13
-1.345 -0.052999999 0.63099998 11
-1.37 -0.17399999 0.53399998 13
-1.307 -0.138 0.542 9
-1.276 -0.108 0.56400001 11
-1.362 -0.082999997 0.63800001 13
-1.372 -0.207 0.53600001 14
-1.362 -0.176 0.56599998 13
-1.313 -0.141 0.57999998 9
-1.278 -0.106 0.59899998 12
-1.267 -0.222 0.498 17
-1.352 -0.206 0.56400001 12
-1.36 -0.177 0.602 13
-1.293 -0.13500001 0.60500002 10
-1.256 -0.25099999 0.495 12
-1.26 -0.222 0.52700001 15
-1.348 -0.206 0.597 12
-1.3380001 -0.17 0.62699997 13
-1.137 -0.25600001 0.45100001 19
-1.242 -0.249 0.52200001 11
-1.2539999 -0.221 0.55699998 11
-1.341 -0.2 0.62800002 13
-1.131 -0.28299999 0.45100001 19
-1.128 -0.25299999 0.47600001 15
-1.245 -0.248 0.55400002 11
-1.249 -0.214 0.58600003 12
-1.1289999 -0.31099999 0.454 18
-1.128 -0.28 0.47799999 15
-1.122 -0.25 0.50099999 15
-1.252 -0.243 0.588 12
-1.124 -0.338 0.45500001 18
-1.126 -0.308 0.47999999 15
-1.122 -0.27700001 0.50300002 15
-1.113 -0.241 0.523 5
-1.125 -0.368 0.45899999 18
-1.124 -0.336 0.48199999 15
-1.1210001 -0.303 0.50400001 15
-1.103 -0.26499999 0.51999998 9
-1.123 -0.39700001 0.46200001 17
-1.127 -0.36500001 0.486 15
-1.12 -0.33000001 0.50599998 15
-1.115 -0.29300001 0.52700001 16
-1.1210001 -0.426 0.46599999 17
-1.1210001 -0.39199999 0.48699999 15
-1.117 -0.35699999 0.50800002 15
-1.12 -0.32100001 0.53100002 16
-1.12 -0.456 0.47 17
-1.119 -0.41999999 0.49000001 15
-1.118 -0.38499999 0.51099998 15
-1.1210001 -0.34799999 0.53399998 16
-1.124 -0.48899999 0.477 17
-1.12 -0.44999999 0.49399999 16
-1.12 -0.414 0.51499999 15
-1.119 -0.375 0.53500003 16
-1.077 -0.49900001 0.46200001 9
-1.118 -0.47999999 0.498 15
-1.117 -0.442 0.51700002 15
-1.112 -0.40000001 0.53399998 16
-1.013 -0.49900001 0.44 8
-1.09 -0.498 0.49000001 9
-1.113 -0.47 0.51899999 15
-1.112 -0.428 0.537 16
-0.949 -0.495 0.417 8
-1.025 -0.49700001 0.46599999 7
-1.1109999 -0.49900001 0.523 14
-1.109 -0.45500001 0.53799999 16
-0.89600003 -0.49399999 0.39899999 7
-0.95999998 -0.493 0.44100001 6
-1.043 -0.49700001 0.495 8
-1.112 -0.48500001 0.54299998 17
-0.84899998 -0.495 0.384 7
-0.903 -0.49000001 0.41999999 7
-0.99000001 -0.49900001 0.47400001 5
-1.089 -0.50400001 0.53600001 9
-0.792 -0.48699999 0.36300001 9
-0.85000002 -0.48699999 0.40000001 6
-0.92500001 -0.493 0.447 8
-1.022 -0.5 0.50599998 7
-0.74800003 -0.484 0.34900001 9
-0.80800003 -0.48800001 0.38499999 6
-0.875 -0.49200001 0.428 7
-0.95999998 -0.49700001 0.479 7
-0.708 -0.48199999 0.336 9
-0.76700002 -0.48800001 0.37099999 8
-0.82700002 -0.49000001 0.40900001 6
-0.889 -0.48500001 0.44800001 11
-0.667 -0.477 0.322 9
-0.72500002 -0.484 0.35499999 8
-0.78500003 -0.48899999 0.39300001 9
-0.85600001 -0.49200001 0.435 7
-0.63700002 -0.479 0.31299999 10
-0.68699998 -0.48199999 0.34200001 8
-0.76099998 -0.498 0.38499999 6
-0.81400001 -0.493 0.41800001 7
-0.60900003 -0.47999999 0.30500001 13
-0.64899999 -0.47799999 0.32800001 7
-0.699 -0.48100001 0.359 7
-0.76899999 -0.48899999 0.39899999 9
-0.57800001 -0.477 0.29499999 13
-0.616 -0.47600001 0.317 7
-0.662 -0.47799999 0.34400001 7
-0.72399998 -0.484 0.38 8
-0.551 -0.477 0.287 13
-0.58700001 -0.47499999 0.30700001 7
-0.63200003 -0.47799999 0.33399999 7
-0.68599999 -0.47999999 0.36399999 8
-0.528 -0.479 0.28099999 12
-0.56099999 -0.47600001 0.29899999 7
-0.60000002 -0.47499999 0.322 7
-0.65200001 -0.47799999 0.34999999 8
-0.505 -0.47999999 0.27500001 12
-0.53899997 -0.479 0.29300001 9
-0.57200003 -0.47499999 0.31200001 7
-0.61699998 -0.47499999 0.336 8
-0.484 -0.48100001 0.27000001 12
-0.514 -0.47799999 0.285 9
-0.546 -0.47400001 0.303 8
-0.58999997 -0.47499999 0.32600001 11
-0.461 -0.47999999 0.264 11
-0.491 -0.47799999 0.27900001 9
-0.52700001 -0.479 0.29800001 9
-0.56199998 -0.47299999 0.315 11
-0.43900001 -0.47799999 0.257 11
-0.46900001 -0.47799999 0.27200001 8
-0.50400001 -0.47999999 0.28999999 10
-0.54000002 -0.47600001 0.308 12
-0.421 -0.48100001 0.25299999 10
-0.45100001 -0.48100001 0.26800001 9
-0.479 -0.477 0.28099999 10
-0.51499999 -0.47499999 0.29800001 11
-0.40099999 -0.479 0.248 10
-0.428 -0.47799999 0.26100001 9
0 0 0 0
-0.491 -0.47400001 0.289 12
0 0 0 0
0 0 0 0
-0.43599999 -0.47499999 0.26699999 10
-0.46900001 -0.47400001 0.28200001 11
-0.36000001 -0.47299999 0.237 9
-0.39300001 -0.48100001 0.252 8
-0.421 -0.47999999 0.264 9
-0.45300001 -0.47799999 0.27700001 11
0 0 0 0
0 0 0 0
0 0 0 0
-0.42300001 -0.46700001 0.264 10
-0.324 -0.46799999 0.228 9
-0.35299999 -0.47499999 0.23999999 8
-0.384 -0.47999999 0.25299999 9
0 0 0 0
0 0 0 0
0 0 0 0
-0.359 -0.47 0.243 8
-0.396 -0.479 0.259 10
-0.296 -0.47299999 0.22400001 9
-0.31999999 -0.47299999 0.23100001 7
0 0 0 0
0 0 0 0
0 0 0 0
0 0 0 0
-0.32300001 -0.465 0.23100001 8
-0.35600001 -0.47400001 0.245 9
-0.26699999 -0.47299999 0.21799999 8
-0.28600001 -0.46799999 0.222 7
0 0 0 0
0 0 0 0
0 0 0 0
0 0 0 0
-0.29100001 -0.463 0.223 7
-0.32100001 -0.47 0.233 9
-0.23800001 -0.47 0.212 8
-0.25799999 -0.46799999 0.21600001 7
0 0 0 0
0 0 0 0
0 0 0 0
0 0 0 0
-0.26300001 -0.463 0.21600001 7
-0.289 -0.46700001 0.223 9
-0.214 -0.47499999 0.211 8
-0.233 -0.47299999 0.213 7
0 0 0 0
0 0 0 0
0 0 0 0
0 0 0 0
-0.235 -0.461 0.20900001 7
-0.26100001 -0.46799999 0.21600001 8
-0.19 -0.47600001 0.208 8
-0.206 -0.472 0.208 7
0 0 0 0
0 0 0 0
0 0 0 0
0 0 0 0
-0.20999999 -0.465 0.205 7
-0.23100001 -0.465 0.208 8
-0.16500001 -0.47499999 0.204 8
-0.183 -0.47400001 0.205 7
0 0 0 0
0 0 0 0
0 0 0 0
0 0 0 0
-0.186 -0.46599999 0.20100001 7
-0.207 -0.46900001 0.204 8
-0.141 -0.47299999 0.20100001 7
-0.15700001 -0.47 0.2 6
0 0 0 0
0 0 0 0
0 0 0 0
0 0 0 0
-0.163 -0.47 0.198 7
-0.18099999 -0.46799999 0.197 7
-0.118 -0.47299999 0.199 7
-0.13500001 -0.47400001 0.198 6
0 0 0 0
0 0 0 0
0 0 0 0
0 0 0 0
-0.138 -0.46399999 0.192 7
-0.15700001 -0.46900001 0.193 7
-0.094999999 -0.46599999 0.19499999 7
-0.113 -0.47600001 0.197 6
0 0 0 0
0 0 0 0
0 0 0 0
0 0 0 0
-0.115 -0.463 0.189 7
-0.13500001 -0.472 0.19 7
-0.074000001 -0.472 0.19599999 7
-0.089000002 -0.46900001 0.192 6
0 0 0 0
0 0 0 0
0 0 0 0
0 0 0 0
-0.092 -0.45899999 0.184 6
-0.111 -0.47 0.186 7
-0.025 -0.22499999 0.093000002 16
-0.068000004 -0.47099999 0.191 6
0 0 0 0
0 0 0 0
0 0 0 0
0 0 0 0
-0.07 -0.456 0.18099999 6
-0.088 -0.46900001 0.182 7
-0.013 -0.199 0.082000002 3
-0.018999999 -0.20100001 0.081 2
0 0 0 0
0 0 0 0
0 0 0 0
0 0 0 0
-0.021 -0.19499999 0.075999998 7
-0.064999998 -0.46900001 0.17900001 7
-0.0040000002 -0.197 0.081 3
-0.0099999998 -0.193 0.077 2
0 0 0 0
0 0 0 0
0 0 0 0
0 0 0 0
-0.011 -0.182 0.07 2
-0.017999999 -0.193 0.072999999 2
0.0040000002 -0.221 0.090999998 1
-0.001 -0.19400001 0.077 2
0 0 0 0
0 0 0 0
0 0 0 0
0 0 0 0
-0.0020000001 -0.182 0.07 3
-0.0080000004 -0.193 0.071999997 2
0.029999999 -0.491 0.204 6
0.014 -0.396 0.15800001 1
0 0 0 0
0 0 0 0
0 0 0 0
0 0 0 0
0.012 -0.419 0.161 1
0 -0.19 0.07 2
0.052999999 -0.505 0.211 8
0.039999999 -0.50400001 0.20200001 7
0 0 0 0
0 0 0 0
0 0 0 0
0 0 0 0
0.037 -0.493 0.189 7
0.022 -0.46399999 0.17 3
0.075000003 -0.50199997 0.211 8
0.061999999 -0.50199997 0.20100001 7
0 0 0 0
0 0 0 0
0 0 0 0
0 0 0 0
0.059999999 -0.49399999 0.19 7
0.046999998 -0.498 0.182 8
0.097000003 -0.50099999 0.213 8
0.085000001 -0.50199997 0.20299999 7
0 0 0 0
0 0 0 0
0 0 0 0
0 0 0 0
0.082000002 -0.48800001 0.18799999 7
0.071000002 -0.49700001 0.18099999 8
0.12 -0.5 0.215 9
0.108 -0.50099999 0.20299999 7
0 0 0 0
0 0 0 0
0 0 0 0
0 0 0 0
0.106 -0.491 0.19 7
0.094999999 -0.50099999 0.182 8
0.142 -0.49599999 0.21600001 9
0.132 -0.49900001 0.205 7
0 0 0 0
0 0 0 0
0 0 0 0
0 0 0 0
0.12899999 -0.48800001 0.19 8
0.12 -0.5 0.182 8
0.16500001 -0.49599999 0.21799999 9
0.155 -0.49599999 0.206 7
0 0 0 0
0 0 0 0
0 0 0 0
0 0 0 0
0.154 -0.49200001 0.193 8
0.145 -0.49700001 0.183 8
0.189 -0.495 0.222 9
0.17900001 -0.495 0.208 8
0 0 0 0
0 0 0 0
0 0 0 0
0 0 0 0
0.178 -0.48800001 0.193 8
0.169 -0.491 0.182 8
0.20999999 -0.486 0.222 9
0.20100001 -0.48899999 0.208 8
0 0 0 0
0 0 0 0
0 0 0 0
0 0 0 0
0.20299999 -0.486 0.19499999 8
0.19499999 -0.49000001 0.183 8
0.235 -0.48500001 0.226 9
0.22499999 -0.484 0.20999999 8
0 0 0 0
0 0 0 0
0 0 0 0
0 0 0 0
0.228 -0.48199999 0.197 8
0.223 -0.491 0.186 9
0.26100001 -0.48500001 0.23100001 9
0.25099999 -0.48300001 0.214 8
0 0 0 0
0 0 0 0
0 0 0 0
0 0 0 0
0.25299999 -0.47799999 0.199 8
0.248 -0.48300001 0.186 9
0.28600001 -0.48100001 0.235 10
0.27900001 -0.48300001 0.219 8
0 0 0 0
0 0 0 0
0 0 0 0
0 0 0 0
0.28299999 -0.47999999 0.204 9
0.27700001 -0.48199999 0.189 9
0.31200001 -0.477 0.23899999 10
0.30899999 -0.48300001 0.22400001 8
0 0 0 0
0 0 0 0
0 0 0 0
0 0 0 0
0.31 -0.47400001 0.206 9
0.30599999 -0.47799999 0.192 9
0.34400001 -0.48100001 0.24699999 10
0.33399999 -0.47499999 0.226 8
0 0 0 0
0 0 0 0
0 0 0 0
0 0 0 0
0.34299999 -0.47400001 0.212 9
0.338 -0.477 0.197 10
0.37900001 -0.484 0.257 11
0.36700001 -0.47499999 0.234 9
0 0 0 0
0 0 0 0
0 0 0 0
0 0 0 0
0.377 -0.47299999 0.21799999 10
0.37200001 -0.47499999 0.20100001 10
0.40900001 -0.479 0.26300001 11
0.403 -0.477 0.242 9
0 0 0 0
0 0 0 0
0 0 0 0
0 0 0 0
0.40900001 -0.46799999 0.223 10
0.40799999 -0.47299999 0.207 11
0.44400001 -0.477 0.27200001 11
0.44 -0.47499999 0.25099999 10
0 0 0 0
0 0 0 0
0.463 -0.477 0.27700001 13
0 0 0 0
0.45500001 -0.47400001 0.235 11
0.449 -0.472 0.215 11
0.484 -0.47799999 0.28299999 12
0.484 -0.479 0.26300001 10
0 0 0 0
0.47 -0.47099999 0.219 13
0.49900001 -0.472 0.28600001 12
0 0 0 0
0.493 -0.46900001 0.243 11
0 0 0 0
0.50999999 -0.46200001 0.28600001 13
0 0 0 0
0 0 0 0
0.51300001 -0.46700001 0.227 13
0.54299998 -0.472 0.29899999 13
0.54500002 -0.472 0.27700001 11
0.54299998 -0.47099999 0.255 11
0.542 -0.47 0.234 13
0.56300002 -0.46900001 0.30399999 13
0.56999999 -0.47099999 0.28400001 11
0.57200003 -0.47299999 0.26300001 11
0.56999999 -0.47099999 0.241 14
0.58600003 -0.46599999 0.31 13
0.59399998 -0.47 0.28999999 11
0.59200001 -0.46700001 0.26699999 11
0.59799999 -0.47 0.24699999 14
0.61199999 -0.46700001 0.31799999 14
0.62099999 -0.46900001 0.29800001 11
0.62099999 -0.46700001 0.27399999 11
0.62400001 -0.46700001 0.252 14
0.63499999 -0.463 0.324 14
0.64499998 -0.465 0.30399999 11
0.65100002 -0.46599999 0.28200001 12
0.653 -0.465 0.259 14
0.66399997 -0.463 0.333 14
0.67799997 -0.46599999 0.31299999 11
0.68000001 -0.46399999 0.28999999 12
0.685 -0.463 0.266 15
0.69400001 -0.46200001 0.34299999 14
0.70300001 -0.461 0.31999999 11
0.70899999 -0.46000001 0.296 11
0.71600002 -0.45899999 0.27399999 13
0.72100002 -0.45899999 0.35100001 13
0.73400003 -0.458 0.329 10
0.74199998 -0.458 0.30599999 11
0.75300002 -0.458 0.28299999 13
0.75300002 -0.45699999 0.361 13
0.76300001 -0.45300001 0.336 10
0.77499998 -0.45300001 0.31400001 10
0.79100001 -0.45500001 0.292 13
0.79400003 -0.458 0.375 12
0.80299997 -0.45300001 0.34900001 10
0.81599998 -0.45199999 0.32499999 10
0.83399999 -0.45300001 0.303 12
0.82200003 -0.45199999 0.38299999 11
0.84500003 -0.45199999 0.36199999 10
0.86299998 -0.45300001 0.33899999 10
0.87800002 -0.45100001 0.315 11
0.866 -0.45199999 0.39899999 11
0.88599998 -0.449 0.37400001 10
0.91000003 -0.45100001 0.35299999 10
0.92299998 -0.44600001 0.32600001 10
0.90600002 -0.449 0.412 11
0.935 -0.44800001 0.38999999 10
0.97299999 -0.45500001 0.373 8
0.995 -0.45199999 0.347 8
0.96200001 -0.45100001 0.43200001 8
0.99299997 -0.449 0.40900001 8
1.022 -0.449 0.38600001 8
1.048 -0.44600001 0.361 9
1.01 -0.44800001 0.44800001 9
1.045 -0.44499999 0.426 8
1.079 -0.44400001 0.403 9
1.1109999 -0.442 0.37900001 9
1.066 -0.44600001 0.46700001 9
1.11 -0.44400001 0.447 8
1.1440001 -0.44100001 0.42300001 9
1.192 -0.44100001 0.40200001 10
1.123 -0.442 0.48699999 10
1.179 -0.44100001 0.47 8
1.227 -0.44 0.449 9
1.276 -0.43700001 0.426 10
1.197 -0.44100001 0.514 10
1.249 -0.43599999 0.493 8
1.306 -0.435 0.47299999 9
1.363 -0.43099999 0.45100001 9
1.271 -0.43799999 0.54000002 9
1.334 -0.43200001 0.52200001 8
1.4 -0.43000001 0.50199997 8
1.469 -0.426 0.48100001 9
1.352 -0.43399999 0.56900001 9
1.425 -0.42699999 0.55199999 8
1.499 -0.42300001 0.53299999 8
1.5930001 -0.421 0.51800001 43
1.434 -0.42699999 0.59799999 10
1.533 -0.42300001 0.58899999 43
1.633 -0.41999999 0.57599998 39
1.728 -0.412 0.55699998 40
1.543 -0.42300001 0.63800001 48
1.64 -0.41299999 0.625 9
1.766 -0.41100001 0.61799997 42
0 0 0 0
1.66 -0.41800001 0.68099999 41
1.79 -0.40900001 0.67699999 41
1.929 -0.40200001 0.671 41
0 0 0 0
1.801 -0.412 0.73299998 41
1.938 -0.39700001 0.72799999 57
0 0 0 0
0.56800002 -0.093000002 0.18000001 10
1.8559999 -0.38299999 0.75 54
0 0 0 0
0.57099998 -0.090999998 0.19599999 9
0 0 0 0
1.863 -0.34299999 0.74699998 54
0 0 0 0
0 0 0 0
0.574 -0.066 0.18000001 10
0 0 0 0
0.57099998 -0.077 0.20999999 9
0.58099997 -0.066 0.197 8
0 0 0 0
0 0 0 0
0 0 0 0
0 0 0 0
0.57700002 -0.037999999 0.18000001 10
0.583 -0.068999998 0.229 10
0.58200002 -0.052000001 0.212 8
0.58399999 -0.039000001 0.197 8
0 0 0 0
0 0 0 0
0 0 0 0
0 0 0 0
0.57999998 -0.0099999998 0.18000001 10
0.588 -0.043000001 0.229 10
0.58999997 -0.027000001 0.214 8
0.588 -0.011 0.197 8
0 0 0 0
0 0 0 0
0 0 0 0
0 0 0 0
0.58600003 0.017000001 0.18099999 10
0.59200001 -0.017999999 0.228 10
0.59100002 0 0.213 8
0.59600002 0.015 0.199 8
0 0 0 0
0 0 0 0
0 0 0 0
0 0 0 0
0.588 0.045000002 0.182 10
0.59299999 0.0070000002 0.227 10
0.59600002 0.026000001 0.213 8
0.60299999 0.043000001 0.20100001 8
0 0 0 0
0 0 0 0
0 0 0 0
0 0 0 0
0.58999997 0.072999999 0.184 10
0.59600002 0.032000002 0.227 10
0.59899998 0.052999999 0.214 9
0.60299999 0.071000002 0.20100001 8
0 0 0 0
0 0 0 0
0 0 0 0
0 0 0 0
0.59299999 0.103 0.186 10
0.60399997 0.059 0.229 10
0.60699999 0.081 0.21699999 9
0.60900003 0.101 0.204 8
0 0 0 0
0 0 0 0
2.323 0.36500001 0.83099997 94
2.312 0.44 0.77899998 97
2.3 0.514 0.727 22
2.3559999 0.33700001 0.89300001 91
2.3329999 0.421 0.83600003 94
2.3169999 0.49599999 0.78299999 103
2.312 0.574 0.73500001 150
2.3499999 0.38800001 0.889 90
2.335 0.47499999 0.838 90
2.3199999 0.55299997 0.787 92
3.1370001 0.85900003 1.0039999 115
2.345 0.44100001 0.88800001 89
2.329 0.52899998 0.838 83
3.1429999 0.82800001 1.071 150
3.1370001 0.93900001 1.011 113
2.3399999 0.493 0.88599998 83
2.323 0.583 0.838 23
3.1459999 0.90600002 1.077 115
3.135 1.021 1.017 111
2.332 0.54500002 0.88300002 83
3.1630001 0.87 1.145 111
3.1459999 0.986 1.0829999 112
3.131 1.102 1.024 119
2.326 0.59799999 0.88200003 17
3.1559999 0.94499999 1.146 104
3.141 1.0650001 1.087 106
3.1300001 1.187 1.033 104
3.1659999 0.88800001 1.2029999 110
3.151 1.022 1.149 103
3.138 1.146 1.094 106
3.131 1.272 1.043 102
3.1619999 0.963 1.205 103
3.154 1.102 1.156 93
3.1389999 1.23 1.102 106
3.1270001 1.357 1.052 116
3.1670001 1.0420001 1.209 101
3.1489999 1.181 1.161 100
3.1340001 1.312 1.109 96
3.119 1.443 1.061 114
3.1600001 1.117 1.211 99
3.1470001 1.262 1.166 103
3.128 1.395 1.117 109
3.112 1.53 1.071 122
3.154 1.194 1.2130001 118
3.1340001 1.34 1.169 112
3.119 1.479 1.124 113
3.1070001 1.62 1.082 137
3.148 1.272 1.216 111
3.1329999 1.424 1.177 105
3.1099999 1.563 1.132 117
2.925 1.613 1.0319999 34
3.142 1.352 1.219 118
3.125 1.508 1.183 110
3.075 1.636 1.131 106
2.7739999 1.617 0.99199998 35
3.138 1.433 1.224 108
3.1229999 1.595 1.192 109
2.846 1.6 1.058 33
2.73 1.679 0.991 30
3.141 1.52 1.233 119
3.0090001 1.623 1.159 44
2.7019999 1.602 1.017 39
2.651 1.717 0.977 72
3.132 1.603 1.237 108
2.812 1.6 1.094 36
2.6389999 1.648 1.006 27
2.4979999 1.704 0.935 74
3.029 1.636 1.205 135
2.668 1.6 1.048 38
2.605 1.712 1.007 34
2.378 1.705 0.90600002 65
2.8069999 1.599 1.125 34
2.5680001 1.62 1.02 29
2.4779999 1.712 0.97100002 84
2.279 1.716 0.88300002 69
2.6589999 1.594 1.075 37
2.54 1.6849999 1.021 26
2.355 1.709 0.93699998 65
2.256 1.784 0.89099997 76
2.536 1.599 1.034 34
2.4790001 1.727 1.0089999 55
2.266 1.726 0.91600001 63
2.256 1.8710001 0.90899998 70
2.506 1.66 1.0319999 29
2.346 1.715 0.96700001 67
2.2579999 1.804 0.92799997 67
2.256 1.9630001 0.92799997 67
2.4719999 1.7180001 1.028 41
2.263 1.735 0.94599998 62
2.26 1.892 0.94599998 71
2.2390001 2.0409999 0.94 77
2.352 1.715 0.98900002 65
2.26 1.816 0.95899999 65
2.2579999 1.9809999 0.96200001 66
2.23 2.1300001 0.958 70
2.273 1.737 0.96799999 61
2.257 1.899 0.97299999 73
2.2360001 2.0550001 0.972 69
2.234 2.2360001 0.98299998 70
2.266 1.814 0.977 67
2.26 1.992 0.991 73
2.2409999 2.158 0.995 66
2.1819999 2.2880001 0.98400003 83
2.2620001 1.897 0.98900002 74
2.2409999 2.0680001 1 68
2.2349999 2.253 1.013 77
2.076 2.2820001 0.96100003 76
2.2690001 1.992 1.006 74
2.2409999 2.165 1.018 68
2.165 2.2850001 1.0039999 74
1.983 2.2850001 0.94300002 7
2.2420001 2.0610001 1.0089999 70
2.2349999 2.26 1.035 76
2.0610001 2.28 0.97899997 69
0 0 0 0
2.2420001 2.1559999 1.026 66
2.164 2.2909999 1.023 72
1.969 2.2809999 0.95899999 6
0.29699999 0.37599999 0.149 7
2.2460001 2.2609999 1.045 78
2.0599999 2.2839999 0.995 63
0 0 0 0
0 0 0 0
2.1700001 2.286 1.029 74
1.9529999 2.267 0.96499997 6
0.296 0.377 0.152 6
0.28600001 0.39899999 0.153 7
2.0680001 2.2809999 1 68
0 0 0 0
0 0 0 0
0 0 0 0
1.9859999 2.2939999 0.98000002 11
0.296 0.377 0.153 6
0.28999999 0.40599999 0.15800001 6
0.273 0.421 0.15700001 7
0 0 0 0
0 0 0 0
0 0 0 0
0 0 0 0
0.29800001 0.37799999 0.154 7
0.28999999 0.40799999 0.15899999 6
0.27200001 0.421 0.15800001 6
0.25299999 0.43399999 0.15700001 7
0 0 0 0
0 0 0 0
0 0 0 0
0 0 0 0
0.285 0.398 0.154 7
0.27399999 0.42399999 0.15899999 6
0.25099999 0.43099999 0.15700001 6
0.22499999 0.42899999 0.152 7
0 0 0 0
0 0 0 0
0 0 0 0
0 0 0 0
0.27000001 0.41600001 0.155 7
0.252 0.43399999 0.15800001 6
0.226 0.43200001 0.153 6
0.20299999 0.435 0.15099999 7
0 0 0 0
0 0 0 0
0 0 0 0
0 0 0 0
0.249 0.426 0.152 7
0.226 0.43399999 0.153 6
0.204 0.43900001 0.152 6
0.18099999 0.43900001 0.15000001 6
0 0 0 0
0 0 0 0
0 0 0 0
0 0 0 0
0.221 0.42300001 0.146 7
0.20299999 0.43700001 0.149 6
0.182 0.44499999 0.15000001 6
0.17200001 0.47799999 0.16 7
0 0 0 0
0 0 0 0
0 0 0 0
0 0 0 0
0.198 0.426 0.142 7
0.183 0.44800001 0.149 6
0.17 0.477 0.15800001 6
0.147 0.477 0.15800001 7
0 0 0 0
0 0 0 0
0 0 0 0
0 0 0 0
0.18099999 0.442 0.14300001 7
0.171 0.48100001 0.156 6
0.146 0.47799999 0.156 6
0.123 0.47600001 0.156 6
0 0 0 0
0 0 0 0
0 0 0 0
0 0 0 0
0.168 0.47299999 0.148 7
0.148 0.48699999 0.155 6
0.122 0.47799999 0.153 5
0.107 0.50599998 0.164 8
0 0 0 0
0 0 0 0
0 0 0 0
0 0 0 0
0.146 0.48100001 0.147 7
0.122 0.48199999 0.15000001 6
0.104 0.49900001 0.15800001 6
0.082999997 0.50700003 0.164 7
0 0 0 0
0 0 0 0
0 0 0 0
0 0 0 0
0.12 0.47600001 0.142 7
0.105 0.51099998 0.156 7
0.081 0.50800002 0.15899999 6
0.059999999 0.51200002 0.164 7
0 0 0 0
0 0 0 0
0 0 0 0
0 0 0 0
0.103 0.509 0.149 8
0.081 0.51300001 0.155 7
0.057999998 0.51099998 0.15899999 6
0.037 0.51999998 0.167 8
0 0 0 0
0 0 0 0
0 0 0 0
0 0 0 0
0.078000002 0.50700003 0.145 8
0.057 0.51899999 0.155 7
0.035 0.51899999 0.16 6
0.014 0.53200001 0.17 7
0 0 0 0
0 0 0 0
0 0 0 0
0 0 0 0
0.055 0.51700002 0.146 8
0.033 0.52700001 0.156 7
0.011 0.53899997 0.16599999 7
-0.0089999996 0.54299998 0.17399999 8
0 0 0 0
0 0 0 0
0 0 0 0
0 0 0 0
0.029999999 0.51999998 0.14399999 8
0.0080000004 0.52700001 0.154 7
-0.013 0.54699999 0.168 7
-0.039000001 0.62300003 0.2 10
0 0 0 0
0 0 0 0
0 0 0 0
0 0 0 0
0.0049999999 0.53299999 0.146 8
-0.016000001 0.55599999 0.162 7
-0.043000001 0.62199998 0.191 8
-0.07 0.648 0.20900001 10
0 0 0 0
0 0 0 0
0 0 0 0
-0.086000003 0.65499997 0.213 3
-0.02 0.55500001 0.15099999 8
-0.048 0.62400001 0.18099999 9
-0.078000002 0.671 0.206 10
-0.31099999 2.0220001 0.65899998 16
0 0 0 0
0 0 0 0
-0.28099999 2.017 0.62199998 56
-0.35600001 2.01 0.65799999 67
-0.054000001 0.63300002 0.171 11
-0.082000002 0.662 0.192 6
-0.32800001 2.0179999 0.62300003 79
-0.38999999 1.951 0.64200002 52
0 0 0 0
-0.29800001 2.0150001 0.58499998 14
-0.373 2.0020001 0.62 52
-0.43599999 1.952 0.64600003 33
0 0 0 0
-0.345 2.006 0.583 80
-0.40900001 1.947 0.60500002 52
-0.51300001 2.0780001 0.69099998 102
-0.32100001 2.029 0.546 20
-0.39199999 2 0.58200002 22
-0.46599999 1.993 0.62199998 135
-0.56 2.0669999 0.69199997 15
-0.36700001 2.0009999 0.53799999 62
-0.42699999 1.938 0.565 31
-0.54000002 2.089 0.65499997 89
-0.56099999 1.901 0.64099997 66
-0.40599999 1.9529999 0.52499998 18
-0.493 2.0090001 0.58700001 38
-0.55199999 1.952 0.61500001 2
-0.61199999 1.918 0.65100002 150
-0.454 1.946 0.523 35
-0.53600001 1.983 0.58099997 3
-0.58099997 1.888 0.59799999 91
-0.73799998 2.145 0.73400003 113
-0.48699999 1.88 0.50599998 20
-0.56699997 1.9170001 0.56400001 29
-0.67000002 2.0120001 0.64200002 150
-0.73299998 1.9859999 0.685 146
-0.53399998 1.874 0.50599998 52
-0.60500002 1.883 0.55699998 84
-0.71399999 1.993 0.63999999 107
-0.84500003 2.1429999 0.74599999 133
-0.583 1.872 0.50700003 85
-0.73900002 2.1259999 0.63200003 66
-0.75700003 1.969 0.63700002 150
-0.86299998 2.052 0.72100002 86
-0.63499999 1.877 0.50999999 85
-0.71799999 1.92 0.574 72
-0.84100002 2.0469999 0.667 70
-0.90799999 2.0320001 0.72100002 87
-0.68099999 1.865 0.50800002 86
-0.82700002 2.0610001 0.62 86
-0.88300002 2.0190001 0.66299999 83
-0.95300001 2.0120001 0.72100002 88
-0.73299998 1.865 0.51099998 92
-0.852 1.989 0.602 107
-0.89600003 1.927 0.639 118
-0.99699998 1.99 0.72100002 88
-0.78500003 1.863 0.51300001 88
-0.86299998 1.8890001 0.57700002 74
-0.97399998 1.975 0.66100001 107
-1.128 2.132 0.78100002 85
-0.83499998 1.855 0.514 87
-0.92299998 1.901 0.58499998 150
-1.045 2.003 0.67799997 150
-1.182 2.1210001 0.787 78
-0.884 1.8430001 0.51499999 85
-0.96600002 1.877 0.583 143
-1.165 2.1129999 0.72299999 69
-1.182 2.0139999 0.75599998 17
-0.94099998 1.846 0.51999998 82
-1.028 1.887 0.59200001 152
-1.122 1.929 0.66799998 64
-1.179 1.911 0.727 58
-0.99800003 1.845 0.52399999 93
-1.074 1.865 0.59100002 118
-1.153 1.8839999 0.66000003 92
-1.192 1.84 0.70999998 66
-1.054 1.839 0.52700001 86
-1.12 1.8430001 0.59100002 93
-1.1950001 1.855 0.65799999 49
-1.358 1.999 0.78299999 90
-1.114 1.84 0.53299999 78
-1.174 1.834 0.59500003 77
-1.353 1.999 0.71899998 113
-1.376 1.931 0.76800001 87
-1.173 1.834 0.53799999 79
-1.27 1.8839999 0.62 150
-1.367 1.925 0.70300001 86
-1.3609999 1.824 0.73699999 109
-1.261 1.869 0.55500001 150
-1.369 1.932 0.64399999 91
-1.357 1.8200001 0.67500001 85
-1.358 1.739 0.71399999 88
-1.373 1.933 0.58099997 97
-1.3609999 1.8279999 0.61799997 84
-1.3609999 1.742 0.65600002 83
-1.358 1.6619999 0.69400001 73
-1.38 1.846 0.56300002 126
-1.368 1.75 0.60100001 91
-1.3660001 1.669 0.63999999 73
-1.423 1.666 0.708 110
-1.382 1.757 0.54400003 90
-1.374 1.675 0.58499998 65
-1.434 1.6720001 0.65200001 100
-1.34 1.501 0.64999998 125
-1.386 1.676 0.528 68
-1.4450001 1.678 0.597 98
-1.359 1.5140001 0.602 108
-1.365 1.4630001 0.64600003 88
-1.46 1.681 0.53799999 112
-1.372 1.52 0.55000001 112
-1.38 1.4680001 0.59500003 83
-1.363 1.398 0.63 113
-1.381 1.513 0.49399999 112
-1.39 1.4680001 0.542 100
-1.359 1.382 0.57200003 119
-1.346 1.322 0.60799998 80
-1.401 1.4630001 0.48699999 100
-1.359 1.37 0.51599997 123
-1.359 1.3200001 0.55800003 83
-1.388 1.304 0.61400002 95
-1.353 1.345 0.45699999 91
-1.373 1.3200001 0.509 92
-1.3940001 1.294 0.55900002 89
-1.332 1.197 0.57599998 79
-1.392 1.317 0.458 96
-1.38 1.266 0.49900001 126
-1.345 1.193 0.528 78
-1.383 1.1900001 0.58700001 73
-1.362 1.228 0.43700001 107
-1.3660001 1.194 0.48199999 86
-1.41 1.1950001 0.542 76
-1.427 1.174 0.59399998 88
-1.3839999 1.187 0.433 83
-1.428 1.191 0.493 92
-1.4170001 1.146 0.53299999 101
-1.341 1.0549999 0.54799998 85
-1.4529999 1.186 0.44400001 104
-1.3660001 1.086 0.46200001 90
-1.359 1.049 0.50199997 82
-1.383 1.04 0.55500001 89
-1.374 1.067 0.41100001 83
-1.388 1.051 0.46000001 84
-1.406 1.035 0.50999999 85
-1.413 1.015 0.55699998 87
-1.418 1.0470001 0.41600001 96
-1.4299999 1.031 0.465 109
-1.431 1.0039999 0.509 90
-1.4299999 0.98000002 0.55500001 76
-1.451 1.017 0.417 104
-1.4450001 0.99000001 0.461 83
-1.426 0.95300001 0.49900001 71
-1.372 0.898 0.52399999 75
-1.4579999 0.97000003 0.41100001 80
-1.387 0.903 0.435 77
-1.382 0.87900001 0.47600001 90
-1.306 0.81400001 0.491 85
-1.403 0.88499999 0.38800001 98
-1.321 0.81699997 0.40700001 86
-1.324 0.801 0.449 83
-1.3329999 0.79100001 0.49399999 83
-1.35 0.80599999 0.36700001 92
-1.35 0.792 0.41 96
-1.3430001 0.77100003 0.44800001 15
-1.302 0.73500001 0.47600001 80
-1.344 0.75800002 0.36000001 68
-1.321 0.73299998 0.39500001 67
-1.332 0.72500002 0.43799999 76
-1.34 0.71799999 0.48300001 15
-1.358 0.72399998 0.35800001 14
-1.377 0.72299999 0.40599999 12
-1.398 0.72000003 0.454 11
-1.414 0.71899998 0.50300002 79
-1.438 0.72100002 0.37400001 89
-1.437 0.71200001 0.417 100
-1.433 0.69800001 0.45899999 93
-1.432 0.68800002 0.50300002 84
-1.456 0.68599999 0.37400001 94
-1.408 0.65600002 0.40400001 70
-1.36 0.625 0.43000001 64
-1.342 0.61000001 0.46599999 76
-1.368 0.60500002 0.347 80
-1.358 0.59399998 0.38499999 91
-1.3559999 0.58600003 0.42399999 19
-1.3559999 0.57999998 0.465 13
-1.382 0.57099998 0.34599999 13
-1.413 0.579 0.39500001 12
-1.419 0.57499999 0.43900001 14
-1.418 0.57099998 0.48100001 15
-1.4400001 0.55400002 0.35699999 15
-1.439 0.551 0.398 96
-1.427 0.54100001 0.43700001 15
-1.424 0.537 0.47799999 87
-1.437 0.51300001 0.352 20
-1.4299999 0.509 0.39199999 14
-1.429 0.505 0.433 14
-1.4220001 0.50199997 0.47299999 15
-1.436 0.47400001 0.34900001 15
-1.432 0.472 0.389 78
-1.4170001 0.465 0.42500001 14
-1.423 0.46700001 0.46900001 76
-1.432 0.43399999 0.345 21
-1.426 0.433 0.384 13
-1.4299999 0.43399999 0.42500001 13
-1.4170001 0.43200001 0.463 14
-1.3559999 0.375 0.324 17
-1.349 0.37599999 0.36000001 16
-1.345 0.375 0.396 12
-1.339 0.37599999 0.433 13
-1.451 0.36399999 0.34400001 15
-1.4299999 0.36199999 0.37900001 13
-1.428 0.36300001 0.41800001 13
-1.421 0.366 0.456 14
-1.447 0.32600001 0.34099999 14
-1.438 0.32800001 0.37799999 13
-1.436 0.331 0.417 13
-1.431 0.33500001 0.456 15
-1.449 0.289 0.33899999 14
-1.437 0.29300001 0.375 13
-1.432 0.296 0.41299999 13
-1.426 0.301 0.45100001 14
-1.4349999 0.25 0.33399999 14
-1.428 0.25600001 0.37099999 13
-1.423 0.26100001 0.40799999 13
-1.41 0.266 0.44299999 14
-1.372 0.205 0.31799999 12
-1.3660001 0.212 0.35299999 11
-1.3789999 0.22 0.39300001 10
-1.391 0.23100001 0.43399999 12
-1.368 0.171 0.31600001 17
-1.353 0.178 0.34799999 16
-1.349 0.184 0.382 16
-1.344 0.193 0.417 17
-1.396 0.14 0.322 13
-1.383 0.149 0.354 12
-1.368 0.155 0.38600001 12
-1.355 0.16500001 0.41800001 13
-1.419 0.108 0.32600001 18
-1.411 0.118 0.36000001 13
-1.396 0.126 0.39199999 12
-1.375 0.13699999 0.42199999 13
-1.425 0.072999999 0.32699999 18
-1.416 0.085000001 0.36000001 17
-1.4170001 0.096000001 0.396 13
-1.401 0.108 0.428 14
-1.428 0.039000001 0.32699999 18
-1.4220001 0.052000001 0.361 17
-1.415 0.064000003 0.39399999 13
-1.409 0.078000002 0.428 14
-1.419 0.0040000002 0.32499999 18
-1.4170001 0.018999999 0.359 17
-1.4170001 0.032000002 0.39399999 13
-1.409 0.046999998 0.42699999 14
-1.38 -0.028000001 0.317 13
-1.381 -0.013 0.34900001 11
-1.393 0 0.38600001 12
-1.403 0.016000001 0.42300001 14
-1.386 -0.061999999 0.31799999 13
-1.363 -0.045000002 0.345 17
-1.363 -0.029999999 0.377 16
-1.364 -0.013 0.41 12
-1.426 -0.097999997 0.32800001 18
-1.399 -0.079000004 0.354 12
-1.367 -0.061000001 0.37799999 11
-1.351 -0.041999999 0.405 17
-1.3150001 -0.122 0.303 18
-1.3430001 -0.107 0.34 11
-1.418 -0.096000001 0.39199999 13
-1.3890001 -0.074000001 0.41499999 12
-1.38 -0.162 0.31900001 12
-1.313 -0.13600001 0.333 14
-1.307 -0.118 0.361 16
-1.368 -0.103 0.40799999 13
-1.409 -0.2 0.32699999 20
-1.403 -0.178 0.35600001 16
-1.353 -0.153 0.37400001 10
-1.302 -0.127 0.38800001 17
-1.291 -0.215 0.301 18
-1.393 -0.20999999 0.354 12
-1.3940001 -0.19 0.38499999 17
-1.377 -0.16500001 0.41 12
-1.291 -0.24699999 0.303 17
-1.289 -0.22499999 0.329 16
-1.311 -0.20900001 0.36199999 11
-1.399 -0.199 0.41600001 19
-1.1569999 -0.25 0.273 20
-1.273 -0.25299999 0.32600001 11
-1.279 -0.234 0.354 15
-1.2920001 -0.213 0.384 12
-1.152 -0.278 0.273 19
-1.1569999 -0.25799999 0.29699999 15
-1.1849999 -0.244 0.329 13
-1.283 -0.23999999 0.382 16
-1.158 -0.30899999 0.27700001 19
-1.155 -0.28600001 0.29800001 15
-1.154 -0.26499999 0.32100001 15
-1.158 -0.243 0.345 15
-1.151 -0.33700001 0.27700001 19
-1.153 -0.315 0.29899999 15
-1.151 -0.292 0.32100001 15
-1.1440001 -0.26699999 0.34099999 17
-1.149 -0.36700001 0.27900001 19
-1.15 -0.34299999 0.30000001 15
-1.15 -0.31999999 0.322 15
-1.142 -0.29300001 0.34099999 17
-1.146 -0.396 0.28099999 18
-1.152 -0.373 0.303 15
-1.149 -0.34799999 0.32300001 15
-1.141 -0.31900001 0.34099999 17
-1.1440001 -0.426 0.28299999 17
-1.1440001 -0.40000001 0.303 15
-1.146 -0.375 0.324 15
-1.142 -0.347 0.34200001 17
-1.145 -0.458 0.287 17
-1.146 -0.43099999 0.30599999 15
-1.142 -0.403 0.32499999 15
-1.141 -0.37400001 0.34299999 17
-1.145 -0.49000001 0.28999999 19
-1.141 -0.46000001 0.30700001 15
-1.14 -0.43099999 0.32600001 15
-1.1390001 -0.40099999 0.34299999 16
-1.099 -0.50099999 0.28099999 8
-1.148 -0.49399999 0.31200001 16
-1.1390001 -0.461 0.32800001 15
-1.14 -0.43099999 0.345 16
-1.025 -0.498 0.266 8
-1.0880001 -0.498 0.29800001 7
-1.141 -0.493 0.33000001 16
-1.14 -0.46000001 0.347 16
-0.96200001 -0.495 0.25299999 7
-1.023 -0.49700001 0.28299999 7
-1.0829999 -0.49700001 0.31600001 8
-1.137 -0.48800001 0.347 17
-0.90600002 -0.49399999 0.242 7
-0.95999998 -0.49399999 0.26899999 7
-1.026 -0.49900001 0.30199999 7
-1.0930001 -0.498 0.336 9
-0.86400002 -0.498 0.234 7
-0.90399998 -0.493 0.25600001 6
-0.95999998 -0.49399999 0.285 7
-1.033 -0.498 0.31900001 8
-0.79900002 -0.486 0.22 9
-0.86299998 -0.49700001 0.248 6
-0.90600002 -0.493 0.271 6
-0.97100002 -0.495 0.30199999 8
-0.75199997 -0.48199999 0.20999999 9
-0.80400002 -0.48800001 0.234 8
-0.86000001 -0.493 0.25999999 6
-0.917 -0.49399999 0.287 7
-0.70599997 -0.477 0.20100001 9
-0.75700003 -0.48300001 0.223 8
-0.80900002 -0.48899999 0.24699999 7
-0.87 -0.49399999 0.27399999 7
-0.676 -0.47999999 0.19599999 11
-0.71700001 -0.48199999 0.214 8
-0.76499999 -0.486 0.236 8
-0.83499998 -0.49900001 0.266 7
-0.63999999 -0.477 0.189 13
-0.67799997 -0.479 0.206 7
-0.71700001 -0.479 0.22499999 7
-0.77200001 -0.48500001 0.248 8
-0.611 -0.479 0.184 13
-0.64999998 -0.48199999 0.20100001 8
-0.68599999 -0.48100001 0.21699999 7
-0.72899997 -0.47999999 0.236 8
-0.58600003 -0.48199999 0.18000001 13
-0.61400002 -0.477 0.193 8
-0.648 -0.477 0.208 8
-0.69300002 -0.479 0.227 8
-0.55400002 -0.47799999 0.17399999 12
-0.588 -0.479 0.18799999 9
-0.61900002 -0.477 0.20200001 8
-0.65899998 -0.47799999 0.21799999 9
-0.53100002 -0.47999999 0.171 12
-0.56 -0.479 0.182 10
-0.58899999 -0.47600001 0.19499999 10
-0.63 -0.479 0.211 12
-0.509 -0.48199999 0.167 11
-0.53500003 -0.479 0.177 10
-0.56900001 -0.48199999 0.191 10
-0.59799999 -0.47600001 0.20200001 12
-0.48300001 -0.479 0.163 11
-0.51300001 -0.48100001 0.17399999 10
-0.537 -0.47600001 0.184 10
-0.56999999 -0.47499999 0.19599999 12
-0.46000001 -0.479 0.15899999 10
0 0 0 0
0 0 0 0
-0.54000002 -0.47099999 0.18799999 12
0 0 0 0
-0.46000001 -0.47299999 0.163 9
-0.493 -0.479 0.175 10
-0.52399999 -0.47799999 0.185 11
-0.41600001 -0.47600001 0.152 9
0 0 0 0
-0.47099999 -0.47799999 0.17 10
0 0 0 0
0 0 0 0
-0.417 -0.47099999 0.155 9
0 0 0 0
-0.472 -0.47099999 0.17200001 11
-0.37599999 -0.472 0.146 9
-0.403 -0.47600001 0.154 8
-0.43099999 -0.47999999 0.163 9
0 0 0 0
0 0 0 0
0 0 0 0
0 0 0 0
-0.43099999 -0.47 0.163 11
-0.34200001 -0.47299999 0.142 9
-0.361 -0.46900001 0.146 8
-0.391 -0.477 0.155 8
0 0 0 0
