# .PCD v0.7 - Point Cloud Data file format
VERSION 0.7
FIELDS x y z intensity
SIZE 4 4 4 4
TYPE F F F F
COUNT 1 1 1 1
WIDTH 111
HEIGHT 1
VIEWPOINT 0 0 0 1 0 0 0
POINTS 111
DATA ascii
0.463 0.36700001 0.219 9
0.46000001 0.37 0.255 8
0.454 0.37 0.235 6
0.44499999 0.366 0.26699999 9
0.41299999 0.361 0.204 8
0.40700001 0.35800001 0.235 7
0.41100001 0.368 0.222 7
0.40000001 0.359 0.249 8
0.37 0.35600001 0.192 7
0.37099999 0.35600001 0.223 7
0.37200001 0.36500001 0.20999999 6
0.366 0.35800001 0.23800001 8
0.338 0.35800001 0.185 7
0.33899999 0.35600001 0.214 6
0.338 0.36399999 0.20100001 6
0.33500001 0.35699999 0.228 7
0.30599999 0.35699999 0.177 7
0.308 0.35299999 0.204 6
0.30199999 0.35699999 0.19 5
0.30700001 0.35600001 0.219 7
0.43900001 0.36399999 0.31400001 9
0.421 0.36000001 0.347 7
0.421 0.36300001 0.32600001 6
0.41299999 0.36000001 0.301 8
0.40599999 0.359 0.361 8
0.38 0.35499999 0.32600001 7
0.38 0.359 0.30700001 6
0.377 0.36199999 0.289 8
0.373 0.359 0.345 8
0.34599999 0.354 0.31 6
0.345 0.35699999 0.29300001 6
0.338 0.35600001 0.27200001 7
0.338 0.354 0.32600001 7
0.30899999 0.345 0.29100001 6
0.31600001 0.359 0.28299999 6
0.30000001 0.34799999 0.255 6
0.31 0.35299999 0.31299999 7
0.28099999 0.34299999 0.27900001 6
0.28400001 0.354 0.26899999 5
0.27399999 0.35100001 0.249 6
0.28299999 0.35100001 0.30000001 6
0.25799999 0.34400001 0.271 5
0.252 0.34099999 0.28200001 6
0.43099999 0.361 0.36300001 9
0.41299999 0.36199999 0.35499999 9
0.36899999 0.354 0.331 8
0.39199999 0.35699999 0.35699999 8
0.37200001 0.35499999 0.345 8
0.33700001 0.35499999 0.317 7
0.37799999 0.35600001 0.36000001 7
0.34200001 0.35699999 0.331 6
0.303 0.34900001 0.30000001 7
0.338 0.34900001 0.33500001 7
0.30700001 0.352 0.31299999 6
0.271 0.34299999 0.28400001 6
0.34999999 0.354 0.35100001 8
0.31600001 0.35699999 0.32800001 6
0.28099999 0.35299999 0.30199999 6
0.31200001 0.34599999 0.32699999 7
0.28099999 0.34799999 0.30599999 5
0.28 0.34099999 0.30700001 7
0.24699999 0.336 0.285 3
0.255 0.34200001 0.29499999 6
0.433 0.366 0.26300001 9
0.43399999 0.36700001 0.27200001 8
0.389 0.361 0.24600001 8
0.38800001 0.359 0.25299999 7
0.352 0.35800001 0.234 7
0.414 0.36399999 0.271 7
0.347 0.352 0.236 6
0.31799999 0.35499999 0.222 7
0.42500001 0.368 0.28200001 8
0.37599999 0.36300001 0.25600001 6
0.31099999 0.34599999 0.222 6
0.287 0.35100001 0.211 5
0.38100001 0.36199999 0.26199999 7
0.338 0.35699999 0.23999999 6
0.27900001 0.34099999 0.20999999 5
0.34 0.354 0.242 7
0.301 0.34799999 0.223 5
0.30899999 0.35299999 0.23 7
0.454 0.37 0.175 9
0.45100001 0.37099999 0.18099999 8
0.41100001 0.368 0.16500001 8
0.44299999 0.36700001 0.183 7
0.41299999 0.373 0.17200001 7
0.36899999 0.36300001 0.155 7
0.44299999 0.366 0.186 8
0.40700001 0.37 0.17399999 7
0.36899999 0.366 0.16 6
0.333 0.359 0.147 7
0.40099999 0.36300001 0.17299999 8
0.36000001 0.35800001 0.15899999 6
0.331 0.361 0.15000001 5
0.36700001 0.36399999 0.164 7
0.33399999 0.36399999 0.154 6
0.33000001 0.35800001 0.152 7
0.34099999 0.359 0.079999998 6
0.35499999 0.36300001 0.085000001 6
0.377 0.37200001 0.090000004 7
0.32699999 0.35299999 0.079999998 5
0.47799999 0.38100001 0.15000001 9
0.465 0.384 0.131 6
0.421 0.36700001 0.13699999 8
0.41 0.37099999 0.12 6
0.39700001 0.373 0.103 6
0.34900001 0.35800001 0.081 7
0.36500001 0.36199999 0.112 6
0.34799999 0.359 0.094999999 5
0.345 0.35800001 0.122 7
0.336 0.36399999 0.108 6
