# .PCD v0.7 - Point Cloud Data file format
VERSION 0.7
FIELDS x y z intensity
SIZE 4 4 4 4
TYPE F F F F
COUNT 1 1 1 1
WIDTH 179
HEIGHT 1
VIEWPOINT 0 0 0 1 0 0 0
POINTS 179
DATA ascii
0.509 0.221 0.102 8
0.48100001 0.235 0.097999997 8
0.479 0.241 0.082999997 7
0.456 0.248 0.096000001 8
0.45699999 0.257 0.082000002 6
0.447 0.259 0.066 6
0.433 0.25999999 0.093999997 7
0.43099999 0.26800001 0.079000004 6
0.417 0.26800001 0.063000001 6
0.41100001 0.27399999 0.048999999 6
0.40400001 0.26800001 0.090000004 7
0.41 0.28200001 0.078000002 6
0.38699999 0.28200001 0.089000002 6
0.53500003 0.197 0.134 9
0.52499998 0.205 0.163 8
0.53799999 0.211 0.15099999 7
0.51700002 0.214 0.178 9
0.505 0.214 0.12899999 8
0.49399999 0.219 0.15700001 7
0.50400001 0.22499999 0.145 7
0.48899999 0.227 0.17299999 8
0.48199999 0.23199999 0.126 8
0.47499999 0.236 0.155 7
0.47400001 0.23899999 0.14 6
0.46900001 0.243 0.169 8
0.45899999 0.249 0.123 8
0.45300001 0.25099999 0.15099999 7
0.44800001 0.25299999 0.13600001 6
0.44600001 0.25600001 0.16599999 8
0.42500001 0.25799999 0.118 7
0.426 0.26199999 0.147 6
0.428 0.26800001 0.134 6
0.42500001 0.26800001 0.162 8
0.40000001 0.27000001 0.115 7
0.405 0.27500001 0.14399999 6
0.40400001 0.28 0.131 6
0.40099999 0.278 0.15800001 7
0.377 0.28200001 0.113 7
0.37799999 0.28200001 0.139 6
0.377 0.28799999 0.127 6
0.375 0.285 0.153 7
0.495 0.222 0.249 8
0.51300001 0.227 0.23899999 7
0.50099999 0.22 0.21600001 8
0.49200001 0.236 0.26899999 8
0.47099999 0.237 0.242 7
0.484 0.242 0.23100001 7
0.47799999 0.23800001 0.212 8
0.46599999 0.248 0.25999999 8
0.44299999 0.248 0.234 7
0.458 0.255 0.22499999 6
0.447 0.25 0.204 8
0.44100001 0.259 0.25299999 8
0.426 0.26300001 0.23100001 7
0.428 0.266 0.21600001 6
0.426 0.266 0.2 7
0.41999999 0.271 0.248 7
0.40400001 0.27500001 0.226 7
0.40400001 0.27700001 0.211 6
0.405 0.28 0.197 7
0.403 0.285 0.245 7
0.38600001 0.289 0.22400001 6
0.38600001 0.292 0.20900001 6
0.37799999 0.28999999 0.191 7
0.38100001 0.29499999 0.23999999 7
0.36300001 0.29699999 0.21799999 6
0.36500001 0.303 0.206 6
0.35699999 0.30199999 0.18799999 7
0.36399999 0.30599999 0.237 7
0.34200001 0.30599999 0.214 6
0.34099999 0.31299999 0.23100001 7
0.46399999 0.24699999 0.34599999 8
0.47600001 0.249 0.33000001 7
0.47499999 0.24600001 0.30700001 8
0.43799999 0.259 0.33500001 8
0.449 0.26199999 0.31999999 7
0.44600001 0.25799999 0.29699999 8
0.41299999 0.26899999 0.32499999 7
0.426 0.27500001 0.31299999 7
0.421 0.271 0.289 8
0.39399999 0.28099999 0.29899999 7
0.39700001 0.28299999 0.28200001 8
0.375 0.294 0.29499999 7
0.37200001 0.29300001 0.27500001 7
0.34900001 0.301 0.287 7
0.35600001 0.30899999 0.27500001 7
0.33199999 0.31400001 0.285 7
0.33199999 0.317 0.26899999 7
0.359 0.479 0.39899999 9
0.333 0.48699999 0.39300001 11
0.45699999 0.23899999 0.317 9
0.43599999 0.255 0.31099999 9
0.45300001 0.25099999 0.33399999 8
0.42899999 0.264 0.324 7
0.38999999 0.27900001 0.29499999 8
0.40400001 0.27500001 0.31400001 7
0.373 0.294 0.29300001 8
0.382 0.28600001 0.30599999 7
0.35299999 0.30599999 0.28799999 8
0.36300001 0.29800001 0.301 7
0.333 0.317 0.28400001 8
0.34200001 0.308 0.294 6
0.31200001 0.32499999 0.27900001 6
0.36199999 0.498 0.382 12
0.36000001 0.486 0.39199999 10
0.36500001 0.484 0.39700001 11
0.34 0.498 0.39199999 11
0.491 0.221 0.234 9
0.48899999 0.223 0.245 7
0.472 0.23899999 0.23 8
0.48899999 0.223 0.25600001 8
0.47 0.241 0.23999999 7
0.44400001 0.252 0.222 8
0.461 0.236 0.24600001 7
0.447 0.25600001 0.234 6
0.42199999 0.266 0.21699999 8
0.484 0.23199999 0.264 8
0.44 0.252 0.23999999 7
0.42300001 0.26899999 0.227 6
0.40200001 0.28099999 0.214 7
0.45899999 0.24600001 0.25400001 8
0.417 0.26499999 0.23199999 7
0.39899999 0.28 0.221 6
0.38100001 0.29300001 0.20900001 7
0.44 0.26199999 0.248 8
0.40099999 0.28099999 0.229 7
0.37799999 0.292 0.21600001 6
0.359 0.30500001 0.206 7
0.41600001 0.273 0.23999999 7
0.377 0.28999999 0.221 6
0.36300001 0.308 0.214 6
0.39399999 0.285 0.23199999 8
0.35600001 0.301 0.21600001 6
0.37200001 0.296 0.22499999 7
0.34999999 0.30599999 0.21799999 7
0.51999998 0.19599999 0.152 9
0.514 0.20100001 0.16 8
0.495 0.214 0.147 8
0.505 0.20299999 0.167 8
0.49599999 0.221 0.15700001 7
0.472 0.23100001 0.14300001 8
0.50599998 0.206 0.175 9
0.48899999 0.223 0.164 7
0.465 0.233 0.15000001 7
0.45300001 0.249 0.141 8
0.48199999 0.222 0.168 8
0.46399999 0.23800001 0.15800001 7
0.44600001 0.25 0.147 7
0.42699999 0.26199999 0.13699999 7
0.46200001 0.23800001 0.163 8
0.44600001 0.255 0.154 7
0.42699999 0.26699999 0.14399999 6
0.403 0.27399999 0.133 7
0.43799999 0.25099999 0.156 8
0.421 0.26699999 0.149 6
0.39899999 0.27500001 0.139 6
0.37799999 0.28400001 0.12899999 7
0.41499999 0.26300001 0.15099999 7
0.377 0.287 0.13500001 6
0.38999999 0.273 0.14399999 7
0.38 0.292 0.141 6
0.368 0.28299999 0.14 7
0.50300002 0.207 0.096000001 8
0.491 0.221 0.086999997 7
0.44800001 0.23 0.072999999 6
0.442 0.244 0.066 7
0.48199999 0.22400001 0.092 7
0.46900001 0.237 0.083999999 6
0.42300001 0.243 0.071000002 6
0.414 0.255 0.064000003 6
0.456 0.237 0.088 7
0.442 0.249 0.079999998 6
0.40200001 0.257 0.068999998 6
0.391 0.26800001 0.061999999 5
0.43599999 0.252 0.083999999 7
0.42199999 0.264 0.078000002 6
0.40400001 0.25799999 0.079000004 7
0.39399999 0.27200001 0.074000001 5
0.37400001 0.26300001 0.074000001 5
