# .PCD v0.7 - Point Cloud Data file format
VERSION 0.7
FIELDS x y z intensity
SIZE 4 4 4 4
TYPE F F F F
COUNT 1 1 1 1
WIDTH 129
HEIGHT 1
VIEWPOINT 0 0 0 1 0 0 0
POINTS 129
DATA ascii
0.456 0.199 0.152 7
0.461 0.226 0.15700001 8
0.47 0.234 0.146 6
0.461 0.24600001 0.13 7
0.465 0.25299999 0.163 8
0.465 0.25799999 0.148 7
0.46000001 0.26499999 0.118 8
0.46000001 0.27399999 0.134 7
0.46599999 0.28 0.168 8
0.47400001 0.292 0.155 7
0.463 0.29699999 0.123 8
0.46399999 0.30599999 0.14 7
0.47600001 0.315 0.176 9
0.48100001 0.32699999 0.163 7
0.48300001 0.35100001 0.185 9
0.46000001 0.154 0.228 7
0.46399999 0.15099999 0.213 6
0.45899999 0.145 0.19599999 6
0.46399999 0.177 0.234 8
0.46700001 0.175 0.21799999 6
0.46200001 0.17 0.2 6
0.463 0.168 0.186 7
0.46599999 0.20100001 0.23999999 8
0.47299999 0.20200001 0.226 7
0.46799999 0.197 0.207 6
0.46399999 0.19400001 0.19 7
0.472 0.228 0.248 8
0.472 0.227 0.23100001 7
0.472 0.22499999 0.214 6
0.46399999 0.221 0.19499999 7
0.47499999 0.25400001 0.25600001 9
0.477 0.255 0.23899999 7
0.48100001 0.257 0.22400001 7
0.47499999 0.25400001 0.205 8
0.484 0.28600001 0.26800001 9
0.49200001 0.292 0.25400001 7
0.48500001 0.289 0.23199999 7
0.479 0.287 0.213 8
0.495 0.322 0.28200001 10
0.50099999 0.32800001 0.266 7
0.498 0.32800001 0.24600001 8
0.48899999 0.32600001 0.22499999 9
0.50300002 0.35800001 0.29499999 10
0.50700003 0.36500001 0.278 8
0.509 0.37 0.26100001 8
0.5 0.36899999 0.23899999 9
0.50999999 0.39700001 0.30899999 11
0.51200002 0.405 0.29100001 8
0.50800002 0.40700001 0.271 3
0.498 0.412 0.289 2
0.47600001 0.20100001 0.30700001 7
0.47600001 0.197 0.28600001 8
0.48300001 0.223 0.338 8
0.49599999 0.248 0.37799999 10
0.484 0.23100001 0.31900001 8
0.479 0.226 0.29499999 9
0.495 0.25600001 0.35600001 8
0.49900001 0.27599999 0.389 10
0.493 0.264 0.33399999 9
0.493 0.26100001 0.31099999 9
0.50300002 0.28799999 0.37 8
0.50300002 0.30000001 0.34999999 9
0.50400001 0.29899999 0.32699999 10
0.5 0.31200001 0.33000001 10
0.5 0.33000001 0.359 3
0.50400001 0.34900001 0.34400001 8
0.47799999 0.24699999 0.39899999 0
0.48699999 0.234 0.34099999 10
0.498 0.26800001 0.35699999 10
0.498 0.25400001 0.37099999 9
0.5 0.30000001 0.36899999 11
0.505 0.287 0.38499999 10
0.49900001 0.31600001 0.37400001 1
0.50199997 0.26699999 0.39500001 9
0.463 0.161 0.221 8
0.46799999 0.18799999 0.227 8
0.46399999 0.177 0.236 7
0.46599999 0.213 0.23100001 8
0.46599999 0.17900001 0.249 7
0.47999999 0.20900001 0.248 7
0.47 0.242 0.23899999 9
0.46599999 0.20299999 0.252 7
0.48100001 0.236 0.25299999 7
0.46599999 0.18799999 0.259 8
0.477 0.27500001 0.249 9
0.477 0.234 0.26199999 8
0.49200001 0.271 0.26499999 7
0.47499999 0.21699999 0.26800001 8
0.484 0.31 0.259 10
0.47799999 0.26300001 0.26800001 8
0.49700001 0.30399999 0.27399999 8
0.479 0.24600001 0.27399999 9
0.5 0.354 0.27700001 10
0.48800001 0.29800001 0.27900001 8
0.509 0.34400001 0.289 8
0.48800001 0.27900001 0.28400001 9
0.51099998 0.39899999 0.29300001 11
0.50199997 0.338 0.294 9
0.50999999 0.38 0.29800001 9
0.495 0.31299999 0.294 9
0.50999999 0.37799999 0.30700001 9
0.509 0.417 0.308 5
0.50999999 0.35600001 0.31 10
0.49399999 0.403 0.30700001 3
0.51499999 0.39500001 0.32100001 11
0.50400001 0.405 0.31799999 3
0.45899999 0.206 0.153 7
0.463 0.229 0.148 7
0.45300001 0.19599999 0.15800001 6
0.45899999 0.18799999 0.16599999 7
0.46599999 0.236 0.15800001 7
0.46599999 0.25799999 0.153 8
0.46399999 0.226 0.164 7
0.46700001 0.21600001 0.17 8
0.465 0.26300001 0.161 7
0.47299999 0.292 0.15899999 8
0.46599999 0.25299999 0.167 7
0.46799999 0.242 0.17200001 8
0.47400001 0.29800001 0.168 8
0.47600001 0.32600001 0.16599999 9
0.46399999 0.28099999 0.17 7
0.46599999 0.26800001 0.17399999 8
0.47600001 0.331 0.17399999 8
0.472 0.31600001 0.177 8
0.472 0.30000001 0.17900001 9
0.47600001 0.35100001 0.183 8
0.47600001 0.33399999 0.185 9
0.48100001 0.37099999 0.191 2
0.461 0.30899999 0.097000003 8
