# .PCD v0.7 - Point Cloud Data file format
VERSION 0.7
FIELDS x y z intensity
SIZE 4 4 4 4
TYPE F F F F
COUNT 1 1 1 1
WIDTH 574
HEIGHT 1
VIEWPOINT 0 0 0 1 0 0 0
POINTS 574
DATA ascii
0.75 -0.169 0.79500002 11
0.77700001 -0.15700001 0.81900001 2
0.88999999 -0.19599999 0.86500001 11
0.89099997 -0.16 0.935 5
0.81999999 -0.161 0.79299998 8
0.921 -0.14399999 0.963 9
0.89999998 -0.155 0.866 1
0.912 -0.122 0.95099998 1
0.991 -0.147 0.949 12
0.91100001 -0.114 0.87 0
0.85699999 -0.197 0.87199998 10
0.78299999 -0.161 0.792 11
0.86400002 -0.15700001 0.87 1
0.93099999 -0.147 0.93300003 11
0.83099997 -0.19 0.84500003 9
0.90200001 -0.18700001 0.83700001 10
0.79500002 -0.163 0.80299997 8
0.85699999 -0.15700001 0.79100001 7
0.87300003 -0.15800001 0.87699997 1
0.958 -0.152 0.88 1
0.93400002 -0.148 0.93400002 10
0.93300003 -0.126 0.92900002 0
0.96799999 -0.192 0.85799998 10
0.954 -0.15700001 0.778 9
0.89399999 -0.19499999 0.86199999 10
0.88999999 -0.15700001 0.78399998 8
0.81999999 -0.161 0.78600001 12
0.98699999 -0.152 0.866 1
0.96399999 -0.114 0.77999997 3
0.88800001 -0.155 0.84600002 1
0.98799998 -0.13 0.86299998 8
0.99900001 -0.153 0.94700003 10
0.935 -0.102 0.81300002 5
0.96600002 -0.127 0.91100001 6
0.61000001 0.066 0.48800001 4
0.59899998 0.079000004 0.47999999 8
0.62300003 0.107 0.46799999 4
0.59600002 0.092 0.479 10
0.61500001 0.121 0.465 7
0.59100002 0.105 0.47600001 9
0.61000001 0.134 0.463 6
0.60399997 0.093999997 0.51899999 0
0.58999997 0.119 0.477 5
0.61500001 0.15099999 0.46900001 7
0.59799999 0.106 0.51499999 3
0.57800001 0.13 0.46900001 5
0.56 0.15099999 0.42899999 11
0.58700001 0.118 0.50800002 4
0.574 0.14300001 0.46799999 5
0.55599999 0.164 0.42899999 11
0.565 0.126 0.49000001 4
0.55400002 0.15099999 0.454 7
0.55199999 0.177 0.42899999 11
0.55299997 0.13699999 0.48100001 3
0.54299998 0.162 0.44800001 8
0.54500002 0.18799999 0.42699999 11
0.54799998 0.149 0.479 3
0.54400003 0.176 0.45100001 8
0.54000002 0.20100001 0.42699999 11
0.537 0.15899999 0.47099999 3
0.53500003 0.186 0.447 9
0.52899998 0.211 0.42199999 10
0.52999997 0.198 0.44600001 10
0.523 0.222 0.421 10
0.509 0.23100001 0.414 11
0.51599997 0.22 0.44100001 10
0.50599998 0.229 0.43599999 10
0.50300002 0.257 0.419 11
0.49399999 0.25099999 0.435 9
0.484 0.27500001 0.41299999 10
0.479 0.27200001 0.43099999 9
0.46399999 0.29300001 0.40799999 10
0.463 0.29100001 0.428 9
0.45100001 0.315 0.40900001 10
0.42399999 0.32600001 0.398 10
0.43599999 0.333 0.428 0
0.41499999 0.35100001 0.405 7
0.52999997 0.244 0.37200001 10
0.51700002 0.273 0.35699999 8
0.50700003 0.301 0.34400001 8
0.49000001 0.32300001 0.32699999 10
0.505 0.26100001 0.36000001 10
0.5 0.294 0.35299999 8
0.48500001 0.31799999 0.338 8
0.47299999 0.34400001 0.32699999 10
0.48199999 0.27700001 0.34900001 10
0.47999999 0.31200001 0.34599999 8
0.463 0.33500001 0.33199999 8
0.44600001 0.35699999 0.31900001 10
0.442 0.336 0.322 9
0.46900001 0.29800001 0.347 11
0.45699999 0.32800001 0.33899999 9
0.419 0.368 0.31200001 11
0.42500001 0.354 0.31999999 9
0.45199999 0.31799999 0.34299999 10
0.43799999 0.345 0.33399999 8
0.39199999 0.377 0.30399999 10
0.40000001 0.36700001 0.31400001 8
0.43200001 0.33399999 0.336 10
0.42199999 0.36500001 0.333 8
0.37799999 0.39899999 0.308 10
0.38999999 0.391 0.31900001 8
0.41600001 0.35299999 0.333 10
0.40099999 0.38 0.329 8
0.352 0.40700001 0.30199999 9
0.36399999 0.40099999 0.31200001 8
0.39199999 0.36500001 0.32499999 10
0.37900001 0.39399999 0.32300001 8
0.33000001 0.41999999 0.30000001 10
0.345 0.41600001 0.31099999 8
0.37900001 0.38699999 0.32600001 10
0.359 0.40900001 0.32100001 7
0.31 0.43399999 0.30000001 10
0.32499999 0.43000001 0.30899999 9
0.354 0.396 0.31799999 9
0.338 0.42199999 0.317 8
0.28799999 0.44499999 0.29800001 9
0.29899999 0.43599999 0.30399999 8
0.33199999 0.40799999 0.31200001 9
0.31900001 0.43799999 0.31600001 8
0.26199999 0.447 0.292 9
0.278 0.44800001 0.30199999 8
0.315 0.426 0.31200001 9
0.301 0.456 0.31799999 7
0.245 0.465 0.29699999 9
0.255 0.456 0.29899999 7
0.29300001 0.43900001 0.308 9
0.273 0.45899999 0.30899999 6
0.21699999 0.46200001 0.289 9
0.233 0.46399999 0.29699999 7
0.27000001 0.447 0.30199999 8
0.25099999 0.46900001 0.30599999 7
0.206 0.46399999 0.289 7
0.24699999 0.45699999 0.29899999 9
0.22499999 0.472 0.29899999 7
0.22400001 0.465 0.294 8
0.56699997 0.048999999 0.219 10
0.56900001 0.057999998 0.235 9
0.57700002 0.078000002 0.22400001 9
0.57499999 0.066 0.252 9
0.59200001 0.088 0.245 8
0.588 0.108 0.23 10
0.57999998 0.068999998 0.26800001 10
0.58399999 0.093000002 0.25600001 4
0.25299999 0.43799999 0.197 8
0.252 0.43700001 0.198 7
0.23800001 0.45899999 0.20100001 7
0.25099999 0.43399999 0.197 7
0.23999999 0.46399999 0.204 6
0.21799999 0.47400001 0.204 8
0.255 0.43700001 0.19599999 8
0.241 0.465 0.204 6
0.221 0.479 0.206 7
0.23800001 0.456 0.198 7
0.22 0.47600001 0.20299999 7
0.221 0.47499999 0.2 8
0.53600001 -0.0080000004 0.122 8
0.542 0.0049999999 0.13600001 8
0.546 0.017999999 0.124 8
0.54000002 0.0049999999 0.148 7
0.54799998 0.030999999 0.13699999 8
0.55000001 0.044 0.125 8
0.55000001 0.015 0.163 8
0.55599999 0.030999999 0.152 7
0.55199999 0.057 0.138 8
0.56099999 0.071999997 0.12800001 9
0.55800003 0.039999999 0.164 9
0.56400001 0.057 0.154 8
0.56300002 0.085000001 0.141 8
0.57300001 0.102 0.132 9
0.56699997 0.066 0.16599999 9
0.57300001 0.083999999 0.156 8
0.574 0.114 0.145 8
0.58200002 0.133 0.13500001 9
0.57599998 0.092 0.168 9
0.58099997 0.112 0.15800001 8
0.58499998 0.145 0.148 9
0.59899998 0.167 0.141 10
0.58499998 0.12 0.17 9
0.59100002 0.142 0.162 8
0.59500003 0.177 0.152 9
0.61699998 0.204 0.147 10
0.59600002 0.15000001 0.17299999 9
0.60399997 0.17399999 0.16599999 8
0.61500001 0.214 0.15899999 9
0.60600001 0.18099999 0.177 11
0.62300003 0.211 0.17200001 9
0.62300003 0.21699999 0.182 11
0.23999999 0.419 0.113 7
0.23999999 0.42399999 0.114 6
0.234 0.456 0.12 7
0.23899999 0.42500001 0.113 6
0.229 0.45199999 0.118 6
0.21600001 0.47400001 0.122 8
0.23800001 0.42300001 0.109 7
0.233 0.463 0.119 6
0.214 0.47499999 0.121 7
0.228 0.45300001 0.112 7
0.214 0.47799999 0.119 7
0.211 0.47299999 0.113 8
0.51700002 -0.039999999 0.046999998 8
0.51800001 -0.034000002 0.061000001 7
0.51899999 -0.028000001 0.074000001 7
0.52399999 -0.015 0.048 8
0.53799999 -0.026000001 0.090000004 8
0.52499998 -0.0099999998 0.061000001 7
0.53200001 -0.0049999999 0.075000003 7
0.537 0.0089999996 0.048999999 8
0.54000002 -0.0020000001 0.089000002 8
0.537 0.014 0.061999999 7
0.54500002 0.017999999 0.075999998 7
0.542 0.035 0.048999999 8
0.551 0.021 0.090000004 8
0.54699999 0.039999999 0.063000001 7
0.54500002 0.043000001 0.075000003 7
0.54799998 0.061999999 0.050000001 8
0.55400002 0.045000002 0.089000002 8
0.551 0.066 0.063000001 7
0.55400002 0.068999998 0.075999998 7
0.55500001 0.090000004 0.050999999 8
0.56199998 0.071000002 0.089000002 8
0.55599999 0.093000002 0.064000003 8
0.55599999 0.094999999 0.075999998 8
0.56 0.119 0.052000001 9
0.57200003 0.097999997 0.090000004 8
0.56300002 0.121 0.064999998 8
0.56999999 0.124 0.078000002 8
0.57099998 0.15099999 0.054000001 9
0.58099997 0.126 0.090999998 9
0.574 0.152 0.066 8
0.57599998 0.153 0.079000004 8
0.57800001 0.152 0.090000004 9
0.59399998 0.18700001 0.081 7
0.58899999 0.183 0.090999998 10
0.227 0.41 0.048 6
0.22400001 0.414 0.048 5
0.222 0.45100001 0.052000001 6
0.228 0.40700001 0.048 5
0.215 0.447 0.050999999 6
0.205 0.47099999 0.054000001 7
0.23 0.41800001 0.046 6
0.21799999 0.435 0.048999999 5
0.2 0.47099999 0.052000001 6
0.21699999 0.44100001 0.046 6
0.211 0.47600001 0.050999999 6
0.208 0.47600001 0.046999998 7
0.52200001 -0.030999999 0.037 8
0.523 -0.0080000004 0.035999998 8
0.52600002 0.0089999996 0.021 7
0.53299999 0.015 0.035999998 8
0.537 0.034000002 0.021 7
0.54299998 0.039999999 0.0060000001 7
0.54699999 0.039999999 0.035999998 8
0.542 0.059 -0.0089999996 8
0.54500002 0.059 0.021 7
0.54799998 0.066 0.0060000001 7
0.55199999 0.064000003 0.035 8
0.54699999 0.086000003 -0.0089999996 8
0.551 0.085000001 0.02 8
0.55900002 0.093999997 0.0049999999 7
0.55599999 0.090000004 0.035 9
0.55299997 0.115 -0.0089999996 9
0.55599999 0.112 0.02 8
0.56199998 0.122 0.0049999999 7
0.56199998 0.117 0.034000002 9
0.56099999 0.14 0.018999999 8
0.56900001 0.145 0.033 9
0.22400001 0.405 0 6
0.21699999 0.40599999 0.001 5
0.207 0.421 0 6
0.22 0.403 0.003 5
0.20100001 0.42199999 0.001 5
0.20100001 0.46200001 0.001 7
0.22 0.41499999 0.0020000001 6
0.20999999 0.43000001 0.0020000001 5
0.20200001 0.42699999 0.001 5
0.20299999 0.47 0.0020000001 6
0.53200001 0.032000002 0.0040000002 8
0.54500002 0.057 0.003 8
0.542 0.075000003 -0.013 7
0.55400002 0.082999997 0.0020000001 9
0.55400002 0.103 -0.014 7
0.55699998 0.109 -0.032000002 7
0.55599999 0.109 0.0020000001 9
0.55400002 0.12899999 -0.015 8
0.56099999 0.13600001 0.001 9
0.22400001 0.40599999 -0.033 6
0.21600001 0.41 -0.027000001 5
0.20299999 0.414 -0.032000002 6
0.215 0.403 -0.022 5
0.21799999 0.40099999 -0.018999999 6
0.20100001 0.428 -0.028000001 5
0.2 0.41100001 -0.02 6
0.53500003 0.037 0.0040000002 8
0.546 0.063000001 0.0040000002 8
0.54900002 0.068000004 -0.014 7
0.55299997 0.089000002 0.0040000002 9
0.551 0.093999997 -0.014 7
0.54900002 0.113 -0.033 7
0.56 0.115 0.0040000002 9
0.56400001 0.123 -0.014 7
0.56199998 0.142 0.0049999999 9
0.211 0.391 -0.035 6
0.223 0.40200001 -0.013 5
0.20299999 0.41600001 -0.024 5
0.21699999 0.40599999 -0.0040000002 6
0.20999999 0.42399999 -0.014 5
0.20200001 0.42399999 -0.0040000002 6
0.20200001 0.461 -0.015 6
0.52100003 -0.017000001 0.030999999 8
0.52999997 0.0049999999 0.033 8
0.537 0.018999999 0.017000001 7
0.54400003 0.028999999 0.034000002 8
0.54299998 0.044 0.017999999 7
0.546 0.046999998 0.0020000001 7
0.55000001 0.054000001 0.035 8
0.55000001 0.07 0.018999999 7
0.55400002 0.074000001 0.0020000001 7
0.55000001 0.078000002 -0.014 8
0.56 0.079999998 0.037 8
0.55800003 0.097000003 0.02 8
0.56099999 0.102 0.0020000001 7
0.55299997 0.106 -0.014 8
0.56199998 0.106 0.037999999 8
0.55800003 0.123 0.02 8
0.57099998 0.132 0.003 7
0.56599998 0.13699999 -0.015 9
0.57499999 0.13500001 0.039999999 9
0.56900001 0.153 0.021 8
0.57999998 0.163 0.041000001 10
0.215 0.40000001 -0.0049999999 6
0.221 0.403 0.0070000002 5
0.22400001 0.40200001 0.017999999 5
0.2 0.40900001 0.0070000002 4
0.221 0.412 0.029999999 6
0.21699999 0.435 0.018999999 5
0.21600001 0.449 0.030999999 6
0.206 0.46700001 0.02 6
0.2 0.46900001 0.030999999 7
0.51899999 -0.037999999 0.052999999 7
0.52600002 -0.022 0.079999998 8
0.53200001 -0.024 0.067000002 7
0.52200001 -0.028000001 0.041000001 8
0.523 -0.014 0.054000001 7
0.53899997 0 0.082999997 8
0.54000002 0 0.068999998 7
0.52899998 -0.003 0.041000001 8
0.53600001 0.0099999998 0.055 7
0.546 0.024 0.085000001 8
0.54500002 0.024 0.07 7
0.542 0.022 0.041999999 8
0.542 0.035 0.056000002 7
0.55000001 0.048 0.086000003 8
0.551 0.048999999 0.071999997 7
0.54400003 0.048999999 0.041999999 8
0.54699999 0.061000001 0.057 7
0.55699998 0.074000001 0.089000002 9
0.56199998 0.075999998 0.074000001 7
0.551 0.075999998 0.043000001 8
0.55500001 0.088 0.059 8
0.56099999 0.098999999 0.090999998 9
0.56800002 0.103 0.075999998 7
0.56 0.105 0.044 9
0.56300002 0.117 0.061000001 8
0.57300001 0.127 0.094999999 9
0.574 0.131 0.078000002 8
0.56800002 0.13500001 0.046 9
0.57599998 0.148 0.063000001 8
0.58200002 0.156 0.097999997 9
0.58499998 0.161 0.081 8
0.58399999 0.169 0.048 10
0.59100002 0.18099999 0.066 8
0.59200001 0.18700001 0.102 10
0.22400001 0.41600001 0.044 6
0.229 0.41600001 0.057 6
0.233 0.41800001 0.068999998 6
0.21600001 0.45100001 0.046999998 7
0.23899999 0.41999999 0.082000002 6
0.222 0.45199999 0.061000001 6
0.222 0.44400001 0.071999997 6
0.227 0.44400001 0.083999999 6
0.207 0.477 0.063000001 7
0.208 0.46799999 0.074000001 6
0.22 0.48100001 0.089000002 7
0.54799998 0.017999999 0.155 9
0.54500002 0.013 0.141 7
0.54699999 0.0080000004 0.12800001 7
0.54299998 0.003 0.115 8
0.55400002 0.043000001 0.15800001 9
0.56099999 0.039000001 0.146 8
0.56400001 0.034000002 0.133 7
0.54900002 0.028999999 0.116 8
0.56699997 0.068000004 0.164 9
0.57099998 0.064999998 0.15000001 8
0.56699997 0.061000001 0.13500001 7
0.55400002 0.056000002 0.118 8
0.57700002 0.094999999 0.169 10
0.57499999 0.092 0.153 8
0.57999998 0.089000002 0.139 8
0.56599998 0.085000001 0.121 9
0.58499998 0.122 0.17399999 10
0.58899999 0.121 0.15899999 8
0.58700001 0.118 0.142 8
0.58200002 0.116 0.126 9
0.597 0.152 0.18000001 10
0.60399997 0.153 0.16500001 8
0.60299999 0.15099999 0.148 8
0.59299999 0.148 0.12899999 9
0.60699999 0.182 0.186 10
0.62199998 0.18700001 0.17299999 9
0.616 0.185 0.154 9
0.60600001 0.183 0.13500001 10
0.63200003 0.222 0.17900001 9
0.634 0.223 0.161 9
0.237 0.42500001 0.112 7
0.23999999 0.426 0.125 6
0.241 0.42399999 0.13699999 6
0.227 0.458 0.118 7
0.252 0.43799999 0.154 7
0.229 0.45500001 0.13 7
0.23 0.45100001 0.142 7
0.20900001 0.47799999 0.122 8
0.237 0.456 0.15700001 7
0.20999999 0.47099999 0.133 7
0.214 0.472 0.146 7
0.222 0.477 0.16 8
0.20200001 0.491 0.161 8
0.579 0.07 0.26300001 10
0.579 0.059999999 0.245 8
0.57800001 0.050999999 0.228 8
0.56999999 0.041999999 0.20900001 9
0.583 0.086999997 0.249 9
0.588 0.079000004 0.234 8
0.57700002 0.071000002 0.213 9
0.59200001 0.108 0.23800001 9
0.58899999 0.101 0.219 10
0.602 0.133 0.226 11
0.37799999 0.44100001 0.27399999 10
0.35699999 0.454 0.27200001 9
0.345 0.47799999 0.26100001 8
0.32800001 0.456 0.26499999 10
0.31299999 0.477 0.25299999 9
0.278 0.44400001 0.21799999 6
0.30199999 0.45899999 0.259 9
0.24699999 0.43700001 0.19599999 8
0.259 0.43599999 0.22499999 7
0.25400001 0.449 0.215 6
0.259 0.43399999 0.23800001 8
0.236 0.46700001 0.205 8
0.23999999 0.44800001 0.226 6
0.24699999 0.45699999 0.244 8
0.213 0.479 0.207 8
0.223 0.46599999 0.23 7
0.215 0.479 0.22 7
0.227 0.46700001 0.244 9
0.205 0.47299999 0.242 9
0.551 0.214 0.39399999 11
0.523 0.228 0.38100001 11
0.50800002 0.24699999 0.37799999 11
0.514 0.259 0.361 9
0.49700001 0.26800001 0.37900001 10
0.49000001 0.27399999 0.352 9
0.47799999 0.28400001 0.37400001 10
0.47400001 0.29300001 0.34999999 9
0.5 0.30599999 0.345 8
0.46000001 0.30000001 0.36899999 10
0.477 0.308 0.33399999 9
0.5 0.32100001 0.32699999 10
0.456 0.31 0.347 9
0.47400001 0.32100001 0.33700001 8
0.48899999 0.331 0.32499999 10
0.45100001 0.32100001 0.37200001 9
0.46599999 0.33199999 0.31600001 11
0.433 0.32300001 0.34 8
0.45500001 0.33899999 0.33500001 9
0.426 0.331 0.36300001 10
0.447 0.352 0.315 10
0.414 0.338 0.338 8
0.43099999 0.354 0.33000001 8
0.41 0.347 0.361 9
0.419 0.36300001 0.308 10
0.39500001 0.35299999 0.33500001 9
0.414 0.373 0.331 8
0.41600001 0.37799999 0.31299999 10
0.398 0.36700001 0.36500001 9
0.38 0.37099999 0.336 9
0.39300001 0.38800001 0.329 8
0.391 0.39199999 0.30899999 9
0.38 0.38100001 0.36199999 9
0.35800001 0.38100001 0.331 8
0.37 0.40099999 0.32499999 8
0.37200001 0.41 0.31099999 10
0.36300001 0.396 0.361 9
0.34599999 0.40200001 0.33700001 9
0.352 0.417 0.32600001 8
0.352 0.42699999 0.31200001 9
0.345 0.40900001 0.359 9
0.32300001 0.41100001 0.33199999 8
0.336 0.43799999 0.331 8
0.322 0.43200001 0.30500001 10
0.32800001 0.42399999 0.36000001 9
0.30700001 0.42699999 0.33399999 8
0.31200001 0.44800001 0.32800001 8
0.30000001 0.44600001 0.30500001 9
0.315 0.44400001 0.366 9
0.289 0.44299999 0.33700001 9
0.289 0.45899999 0.32699999 8
0.27599999 0.45500001 0.303 8
0.29499999 0.45500001 0.36399999 9
0.27000001 0.45699999 0.338 8
0.266 0.46799999 0.32499999 7
0.252 0.46399999 0.303 8
0.27599999 0.46799999 0.36399999 9
0.249 0.46599999 0.336 8
0.244 0.47999999 0.32600001 7
0.228 0.472 0.30199999 8
0.25600001 0.47799999 0.36300001 9
0.228 0.477 0.33700001 7
0.215 0.47600001 0.317 7
0.20100001 0.47299999 0.29699999 8
0.235 0.48899999 0.36199999 9
0.206 0.48300001 0.33500001 7
0.214 0.498 0.361 9
0.92299998 -0.17900001 0.82599998 10
0.889 -0.153 0.79400003 6
0.98699999 -0.127 0.88 6
0.93199998 -0.156 0.778 8
0.92400002 -0.098999999 0.82300001 2
0.94400001 -0.116 0.78500003 7
0.98199999 -0.154 0.76800001 9
0.94599998 -0.096000001 0.78600001 1
0.60600001 0.082999997 0.47600001 7
0.602 0.11 0.51300001 2
0.60600001 0.097000003 0.47799999 6
0.59399998 0.122 0.509 4
0.60399997 0.11 0.47799999 5
0.574 0.131 0.495 3
0.61000001 0.126 0.486 4
0.55800003 0.14 0.48300001 3
0.58499998 0.134 0.46799999 5
0.61900002 0.132 0.45899999 6
0.55599999 0.152 0.48500001 2
0.57099998 0.145 0.46000001 5
0.61199999 0.145 0.456 9
0.542 0.161 0.47600001 1
0.55199999 0.153 0.44800001 5
0.611 0.16 0.458 4
0.53600001 0.17200001 0.47400001 1
0.56099999 0.161 0.42399999 11
0.53600001 0.185 0.47799999 0
0.54500002 0.178 0.449 8
0.55699998 0.17399999 0.42399999 11
0.53100002 0.19599999 0.477 0
0.53799999 0.19 0.447 8
0.54900002 0.186 0.42199999 11
0.53100002 0.20100001 0.44499999 8
0.54299998 0.199 0.421 11
0.528 0.213 0.447 10
0.52899998 0.208 0.414 10
0.51800001 0.223 0.44299999 10
0.52700001 0.221 0.417 11
0.50800002 0.228 0.40700001 11
0.509 0.24699999 0.44499999 9
0.50700003 0.242 0.41100001 10
0.49700001 0.25099999 0.40799999 11
0.48100001 0.25799999 0.40000001 11
0.472 0.28200001 0.40400001 10
0.463 0.292 0.403 11
0.45100001 0.29899999 0.39899999 10
0.43799999 0.32100001 0.40099999 10
0.42699999 0.33000001 0.39899999 10
0.41499999 0.35299999 0.40400001 9
0.40000001 0.35699999 0.39899999 3
0.405 0.37900001 0.41299999 0
