# .PCD v0.7 - Point Cloud Data file format
VERSION 0.7
FIELDS x y z intensity
SIZE 4 4 4 4
TYPE F F F F
COUNT 1 1 1 1
WIDTH 1864
HEIGHT 1
VIEWPOINT 0 0 0 1 0 0 0
POINTS 1864
DATA ascii
0.061000001 -0.465 0.43000001 3
0 0 0 0
0.097000003 -0.48300001 0.47799999 10
0 0 0 0
0 0 0 0
0.119 -0.48500001 0.50199997 11
0.111 -0.49599999 0.49399999 9
0.1 -0.498 0.479 9
0.086000003 -0.484 0.449 10
0 0 0 0
0.119 -0.48199999 0.48199999 10
0 0 0 0
0 0 0 0
0.142 -0.49000001 0.51599997 12
0 0 0 0
0.121 -0.49000001 0.47400001 10
0.111 -0.48800001 0.454 10
0 0 0 0
0.141 -0.48199999 0.48899999 9
0 0 0 0
0 0 0 0
0.163 -0.486 0.51999998 12
0 0 0 0
0.14399999 -0.48800001 0.477 10
0.13500001 -0.48899999 0.458 10
0 0 0 0
0.16500001 -0.48500001 0.49900001 10
0 0 0 0
0 0 0 0
0.185 -0.484 0.528 12
0 0 0 0
0.168 -0.486 0.48100001 10
0.15899999 -0.48699999 0.45899999 10
0.198 -0.48699999 0.537 12
0.189 -0.48699999 0.509 9
0 0 0 0
0 0 0 0
0.206 -0.479 0.53399998 12
0 0 0 0
0.192 -0.48500001 0.486 10
0.183 -0.48199999 0.46000001 11
0.221 -0.486 0.54799998 12
0 0 0 0
0 0 0 0
0 0 0 0
0 0 0 0
0.221 -0.47600001 0.51200002 10
0.22 -0.49000001 0.49900001 10
0.212 -0.48899999 0.472 11
0.244 -0.484 0.55800003 13
0.23899999 -0.486 0.528 10
0 0 0 0
0 0 0 0
0 0 0 0
0.24699999 -0.477 0.52399999 11
0.245 -0.48699999 0.505 10
0.23800001 -0.48500001 0.47600001 11
0.26800001 -0.48199999 0.56999999 13
0.26499999 -0.486 0.54000002 10
0.257 -0.48300001 0.50599998 10
0.25099999 -0.48300001 0.479 12
0.28200001 -0.48199999 0.57700002 14
0.278 -0.48500001 0.54500002 10
0.27200001 -0.48500001 0.51499999 10
0 0 0 0
0.292 -0.47799999 0.57999998 14
0.292 -0.484 0.551 10
0.28799999 -0.486 0.52200001 10
0.28299999 -0.48699999 0.49200001 12
0.30899999 -0.484 0.59600002 14
0.30599999 -0.484 0.55800003 10
0.30000001 -0.48199999 0.52399999 10
0 0 0 0
0.31999999 -0.479 0.59899998 15
0.31999999 -0.48300001 0.56599998 11
0.31400001 -0.47999999 0.52899998 10
0.31200001 -0.484 0.50099999 13
0.33500001 -0.479 0.60799998 15
0.33399999 -0.48199999 0.57200003 10
0.331 -0.48199999 0.53799999 10
0 0 0 0
0.347 -0.47600001 0.61400002 16
0.34799999 -0.47999999 0.57800001 10
0.345 -0.479 0.54299998 11
0.34299999 -0.48100001 0.51099998 12
0.361 -0.47499999 0.62199998 15
0.36300001 -0.47799999 0.58600003 10
0.36000001 -0.477 0.54799998 11
0.361 -0.48100001 0.51899999 13
0.37400001 -0.47099999 0.62900001 15
0.38 -0.47799999 0.59600002 10
0.37900001 -0.47999999 0.56 11
0.377 -0.479 0.52499998 13
0.391 -0.472 0.64099997 15
0.39500001 -0.47600001 0.60299999 10
0.39500001 -0.477 0.56699997 11
0.39700001 -0.47999999 0.53500003 13
0.40599999 -0.47099999 0.65100002 15
0.41100001 -0.47400001 0.61199999 10
0.40900001 -0.472 0.57099998 10
0.41299999 -0.477 0.54100001 13
0.42399999 -0.472 0.66500002 11
0.42699999 -0.472 0.62 10
0.42899999 -0.47299999 0.583 11
0.433 -0.47600001 0.55000001 13
0.44100001 -0.47099999 0.67699999 11
0 0 0 0
0.447 -0.47099999 0.59200001 10
0.44800001 -0.47 0.55400002 12
0.46000001 -0.472 0.69199997 10
0.46200001 -0.46900001 0.64099997 9
0.465 -0.46900001 0.60100001 10
0.46900001 -0.47 0.565 13
0.47799999 -0.47099999 0.70499998 10
0.48199999 -0.46799999 0.65499997 9
0.484 -0.46599999 0.611 9
0.493 -0.47099999 0.579 16
0.498 -0.472 0.722 10
0.50599998 -0.47099999 0.67299998 9
0.505 -0.46599999 0.62400001 9
0.514 -0.46900001 0.58999997 12
0.51899999 -0.472 0.73799998 10
0.52399999 -0.46700001 0.68400002 9
0.52999997 -0.46700001 0.63999999 9
0.53399998 -0.46399999 0.59799999 11
0.537 -0.46900001 0.75099999 9
0.55000001 -0.46900001 0.70300001 9
0.55400002 -0.46599999 0.65499997 9
0.56300002 -0.46700001 0.61699998 10
0.56800002 -0.47600001 0.78100002 7
0.57099998 -0.46700001 0.71799999 9
0.583 -0.46799999 0.676 9
0.588 -0.465 0.63099998 10
0.58999997 -0.47400001 0.79799998 8
0.59500003 -0.465 0.73500001 9
0.611 -0.46799999 0.69499999 9
0.61799997 -0.465 0.64999998 10
0.61400002 -0.47299999 0.81699997 8
0.63 -0.47099999 0.764 7
0.63700002 -0.46599999 0.71200001 9
0.648 -0.46399999 0.66799998 10
0.63499999 -0.46900001 0.83200002 8
0.65399998 -0.46700001 0.78100002 7
0.671 -0.46799999 0.73699999 7
0.68000001 -0.463 0.68900001 10
0.66000003 -0.46799999 0.85399997 8
0.685 -0.46799999 0.80500001 8
0.69999999 -0.465 0.75599998 7
0.72000003 -0.46599999 0.71600002 8
0.68699998 -0.46599999 0.875 9
0.71200001 -0.46399999 0.82499999 8
0.73400003 -0.46399999 0.78100002 8
0.75700003 -0.465 0.74000001 8
0.71700001 -0.46599999 0.90200001 9
0.745 -0.46200001 0.85000002 8
0.77200001 -0.46399999 0.80900002 8
0.792 -0.46200001 0.76300001 9
0.741 -0.46000001 0.92000002 10
0.77899998 -0.461 0.87800002 8
0.80400002 -0.45899999 0.83099997 8
0.829 -0.45699999 0.787 9
0.75 -0.44499999 0.92000002 10
0.81599998 -0.46000001 0.90700001 10
0.84600002 -0.458 0.861 8
0.87300003 -0.45500001 0.81699997 9
0.759 -0.42899999 0.92000002 10
0.81999999 -0.43900001 0.89999998 10
0.88999999 -0.456 0.89399999 10
0.93199998 -0.458 0.861 9
0.76599997 -0.41299999 0.91799998 10
0.82599998 -0.419 0.89600003 10
0.89499998 -0.433 0.88800001 10
0.963 -0.44600001 0.87800002 11
0.77100003 -0.39500001 0.91399997 10
0.83899999 -0.403 0.89999998 10
0.903 -0.412 0.88599998 10
0.97299999 -0.42300001 0.87599999 11
0.78299999 -0.38100001 0.91799998 10
0.84299999 -0.38299999 0.89399999 10
0.91100001 -0.391 0.884 10
0.98100001 -0.39899999 0.87300003 11
0.79100001 -0.36500001 0.91799998 10
0.85299999 -0.366 0.89600003 10
0.91600001 -0.36899999 0.88 10
0.991 -0.37599999 0.87300003 11
0.79400003 -0.347 0.912 10
0.85900003 -0.34599999 0.89399999 10
0.93000001 -0.35100001 0.884 10
0.99599999 -0.35100001 0.86799997 11
0.801 -0.331 0.912 10
0.86900002 -0.329 0.89499998 10
0.93199998 -0.32800001 0.87800002 10
1.007 -0.329 0.87 11
0.80699998 -0.31400001 0.91000003 7
0.87300003 -0.30899999 0.89200002 8
0.94099998 -0.30700001 0.87800002 10
1.01 -0.30399999 0.86500001 11
0 0 0 0
0.86199999 -0.28400001 0.87300003 0
0.94499999 -0.285 0.875 0
1.02 -0.28099999 0.866 2
0.82099998 -0.28099999 0.91100001 10
0.88599998 -0.271 0.89099997 10
0.958 -0.26499999 0.88099998 10
1.027 -0.257 0.866 11
0.82700002 -0.26499999 0.91100001 10
0.889 -0.25099999 0.88700002 10
0.96200001 -0.243 0.87800002 10
1.03 -0.233 0.86299998 11
0.83099997 -0.24699999 0.90899998 10
0.90100002 -0.233 0.89300001 10
0.96700001 -0.221 0.87599999 10
1.036 -0.208 0.86299998 11
0.838 -0.23 0.91000003 10
0.90799999 -0.214 0.89399999 10
0.96799999 -0.199 0.87300003 10
0.94 -0.16599999 0.77899998 13
0.84299999 -0.213 0.90899998 10
0.81999999 -0.175 0.80299997 12
0.87699997 -0.15899999 0.78600001 12
0.98199999 -0.15000001 0.80900002 1
0.75300002 -0.17399999 0.80699998 20
0.82200003 -0.15700001 0.801 5
0.96899998 -0.153 0.86500001 1
0.96899998 -0.125 0.796 5
0.76499999 -0.16 0.815 2
0.91600001 -0.154 0.88700002 1
1.02 -0.138 0.90600002 6
0.95499998 -0.1 0.78100002 2
0.84799999 -0.15899999 0.89899999 1
0.98500001 -0.14399999 0.94999999 11
0.92799997 -0.104 0.82200003 4
2.322 -0.19 1.8940001 20
0.90200001 -0.15000001 0.95099998 11
2.023 -0.25099999 1.943 19
2.1719999 -0.19499999 1.916 20
2.3239999 -0.13500001 1.891 109
0.91399997 -0.132 0.95899999 6
2.0339999 -0.207 1.946 98
2.174 -0.145 1.913 94
2.3340001 -0.081 1.895 94
1.883 -0.233 1.966 23
2.0369999 -0.163 1.943 110
2.1830001 -0.096000001 1.916 97
2.3310001 -0.027000001 1.891 109
1.886 -0.193 1.962 92
2.039 -0.118 1.9400001 101
2.1830001 -0.046999998 1.913 87
2.3269999 0.027000001 1.886 101
1.893 -0.154 1.962 86
2.0439999 -0.074000001 1.9400001 101
2.1819999 0.001 1.91 94
0 0 0 0
1.897 -0.114 1.959 88
2.0469999 -0.028999999 1.939 93
2.1849999 0.050999999 1.911 82
0.62199998 0.035999998 0.50400001 4
1.901 -0.074000001 1.957 89
2.0480001 0.015 1.937 89
2.1830001 0.1 1.91 65
0.60500002 0.048999999 0.49200001 9
1.906 -0.034000002 1.9579999 90
2.049 0.059999999 1.936 88
2.184 0.15000001 1.911 99
0.59500003 0.061999999 0.484 10
1.908 0.0049999999 1.956 88
2.043 0.104 1.9299999 63
2.1800001 0.199 1.91 88
0.58600003 0.075000003 0.47799999 11
1.9069999 0.046 1.951 85
2.05 0.15000001 1.936 95
2.1760001 0.249 1.909 88
0.58399999 0.089000002 0.47799999 11
1.9119999 0.086999997 1.954 81
2.049 0.19499999 1.936 88
2.171 0.29800001 1.908 92
0.56800002 0.1 0.46700001 11
1.914 0.12800001 1.954 82
2.0450001 0.23999999 1.934 84
2.1700001 0.34799999 1.9119999 91
0.56800002 0.113 0.46799999 12
1.914 0.169 1.952 89
2.0420001 0.285 1.934 89
0 0 0 0
0.55800003 0.125 0.46200001 11
1.9170001 0.20999999 1.955 87
2.04 0.331 1.9349999 85
2.154 0.44600001 1.91 23
0.55400002 0.138 0.46200001 10
1.9170001 0.252 1.955 94
2.033 0.37599999 1.933 85
2.1440001 0.495 1.909 91
0.55199999 0.15099999 0.46200001 12
1.9119999 0.29300001 1.952 80
2.029 0.421 1.9349999 88
2.1370001 0.54400003 1.913 96
0.54299998 0.162 0.458 11
1.9119999 0.336 1.9529999 89
2.0209999 0.46700001 1.933 91
2.125 0.59299999 1.9119999 88
0.528 0.171 0.44800001 10
1.91 0.37799999 1.954 82
2.0139999 0.51200002 1.933 91
2.118 0.64300001 1.916 92
0.54000002 0.189 0.46200001 11
1.9069999 0.41999999 1.954 88
2.0079999 0.55800003 1.937 92
2.108 0.69199997 1.92 90
0.52200001 0.19599999 0.45100001 8
1.9 0.46200001 1.951 87
2 0.60299999 1.938 95
2.0910001 0.73900002 1.918 93
0.514 0.207 0.44800001 4
1.893 0.50400001 1.949 83
1.987 0.648 1.9349999 92
2.0829999 0.79000002 1.925 105
0.50700003 0.21799999 0.447 3
1.893 0.54900002 1.956 73
1.978 0.69400001 1.938 103
2.0650001 0.83700001 1.924 93
0.49599999 0.227 0.442 3
1.887 0.59200001 1.957 80
1.966 0.73900002 1.938 95
2.049 0.88499999 1.926 94
0.48899999 0.237 0.44 3
1.878 0.634 1.956 80
1.95 0.78299999 1.936 97
2.0090001 0.92199999 1.906 45
2.1059999 1.0829999 1.918 23
1.869 0.67699999 1.955 75
1.946 0.83200002 1.946 82
1.941 0.94400001 1.86 15
2.0810001 1.132 1.919 84
1.8609999 0.72100002 1.957 88
1.929 0.875 1.944 86
1.982 1.02 1.92 74
2.059 1.182 1.924 97
1.8559999 0.76599997 1.962 78
1.896 0.912 1.928 51
1.977 1.074 1.936 86
2.0320001 1.229 1.926 103
1.8430001 0.80900002 1.962 76
1.847 0.93900001 1.895 15
1.957 1.122 1.9400001 85
2.0050001 1.276 1.928 93
1.835 0.85500002 1.966 86
1.8609999 1 1.929 46
1.933 1.1670001 1.941 79
1.98 1.325 1.934 108
1.814 0.89399999 1.957 68
1.863 1.0549999 1.952 83
1.908 1.212 1.942 87
1.948 1.37 1.9349999 97
1.762 0.91799998 1.9170001 21
1.846 1.1 1.955 88
1.885 1.257 1.9450001 83
1.9170001 1.414 1.937 104
1.73 0.95099998 1.899 16
1.826 1.1440001 1.956 97
1.86 1.302 1.948 88
1.888 1.46 1.942 95
1.772 1.026 1.962 69
1.804 1.187 1.957 92
1.834 1.347 1.952 84
1.86 1.508 1.95 102
1.758 1.0700001 1.966 88
1.7869999 1.235 1.965 91
1.807 1.391 1.954 87
1.826 1.551 1.952 99
1.739 1.113 1.965 91
1.762 1.276 1.964 90
1.777 1.433 1.956 86
1.79 1.592 1.954 99
1.729 1.1619999 1.976 91
1.739 1.321 1.967 94
1.755 1.4809999 1.966 80
1.757 1.635 1.959 98
1.707 1.204 1.974 79
1.717 1.3660001 1.973 80
1.723 1.522 1.9680001 88
1.721 1.676 1.962 98
1.6900001 1.25 1.979 75
1.691 1.408 1.975 82
1.691 1.564 1.97 86
1.6849999 1.717 1.967 94
1.666 1.2920001 1.978 79
1.6619999 1.449 1.975 83
1.66 1.605 1.973 85
1.646 1.756 1.97 91
1.645 1.336 1.9809999 78
1.6390001 1.494 1.983 78
1.626 1.645 1.976 86
1.6059999 1.7920001 1.972 94
1.622 1.3789999 1.983 79
1.61 1.536 1.985 86
1.59 1.682 1.977 90
1.571 1.835 1.9809999 92
1.599 1.424 1.987 83
1.58 1.576 1.987 79
1.558 1.726 1.985 82
1.5319999 1.873 1.9859999 85
1.571 1.464 1.9859999 77
1.549 1.6160001 1.99 88
1.524 1.765 1.989 84
1.488 1.906 1.987 89
1.552 1.5140001 1.998 79
1.5190001 1.659 1.995 84
1.488 1.804 1.994 88
1.4529999 1.95 2.0009999 102
1.523 1.5549999 1.997 76
1.488 1.7 2 78
1.452 1.845 2.0009999 88
1.413 1.987 2.0090001 103
1.493 1.596 1.998 78
1.456 1.742 2.0050001 84
1.415 1.883 2.007 88
1.354 1.998 1.99 89
1.465 1.64 2.003 74
1.419 1.778 2.0050001 74
1.374 1.915 2.0079999 92
1.289 1.998 1.9630001 85
1.436 1.684 2.0079999 82
1.383 1.816 2.0079999 83
1.336 1.954 2.016 96
1.226 1.9960001 1.936 81
1.403 1.724 2.0090001 77
1.351 1.859 2.0179999 73
1.2920001 1.984 2.0150001 92
1.161 1.99 1.9069999 81
1.375 1.77 2.0179999 81
1.3150001 1.899 2.0239999 76
1.237 1.9960001 1.998 84
1.103 1.992 1.887 81
1.3380001 1.808 2.017 79
1.275 1.933 2.0250001 85
1.173 1.992 1.965 79
1.0470001 1.994 1.868 87
1.304 1.85 2.0220001 79
1.239 1.974 2.033 97
1.112 1.99 1.938 81
0.98799998 1.988 1.844 79
1.2690001 1.892 2.027 75
1.186 1.99 2.017 87
1.051 1.985 1.908 84
0.92900002 1.98 1.819 100
1.23 1.929 2.029 83
1.124 1.987 1.983 73
0.99599999 1.987 1.888 77
0.87900001 1.985 1.808 85
1.193 1.971 2.0350001 94
1.064 1.985 1.9529999 75
0.93900001 1.984 1.863 72
0.82599998 1.983 1.7920001 80
1.143 1.9910001 2.02 79
1.008 1.987 1.927 74
0.88499999 1.982 1.842 76
0.77399999 1.983 1.778 81
1.08 1.987 1.982 72
0.94700003 1.979 1.8940001 76
0.83200002 1.983 1.825 75
0 0 0 0
1.0190001 1.985 1.947 74
0.89499998 1.983 1.875 83
0.77999997 1.982 1.807 74
0.155 0.45699999 0.40400001 4
0.95999998 1.983 1.915 79
0.83899999 1.979 1.848 79
0 0 0 0
0.142 0.44999999 0.39500001 7
0.90499997 1.985 1.89 71
0.78600001 1.98 1.8279999 73
0 0 0 0
0 0 0 0
0.84600002 1.977 1.855 77
0 0 0 0
0.14399999 0.45300001 0.403 7
0.119 0.447 0.389 7
0.79299998 1.98 1.8329999 73
0 0 0 0
0.12899999 0.442 0.391 7
0 0 0 0
0 0 0 0
0.141 0.442 0.396 6
0 0 0 0
0.096000001 0.43599999 0.377 8
0.15800001 0.456 0.41100001 3
0 0 0 0
0.108 0.44100001 0.384 7
0 0 0 0
0.14399999 0.45199999 0.403 8
0.121 0.44800001 0.39399999 6
0 0 0 0
0.077 0.442 0.37900001 8
0 0 0 0
0 0 0 0
0.086999997 0.442 0.38100001 7
0 0 0 0
0.119 0.44299999 0.38600001 8
0.098999999 0.44800001 0.38800001 6
0 0 0 0
0.059 0.45699999 0.391 8
0 0 0 0
0 0 0 0
0.068000004 0.44999999 0.38499999 7
0 0 0 0
0.097000003 0.44400001 0.38 8
0.079000004 0.458 0.391 6
0 0 0 0
0.039999999 0.465 0.39700001 5
0 0 0 0
0 0 0 0
0.048999999 0.46700001 0.396 7
0 0 0 0
0.075999998 0.44800001 0.377 8
0.059 0.46799999 0.396 6
0 0 0 0
0.022 0.52200001 0.44499999 6
0 0 0 0
0 0 0 0
0.030999999 0.50099999 0.42399999 4
0 0 0 0
0.056000002 0.46399999 0.38499999 8
0.039000001 0.486 0.40700001 2
0.075999998 1.933 1.633 3
0 1.934 1.655 21
0 0 0 0
0.111 1.936 1.617 16
0.033 1.948 1.6440001 74
-0.041999999 1.9450001 1.6670001 89
0.035999998 0.49200001 0.403 1
0.067000002 1.949 1.623 78
-0.0099999998 1.944 1.64 84
-0.083999999 1.9400001 1.6670001 80
0.096000001 1.944 1.585 21
0.022 1.949 1.618 86
-0.052999999 1.946 1.642 71
-0.126 1.939 1.669 85
0.050000001 1.949 1.5829999 84
-0.022 1.947 1.614 79
-0.096000001 1.942 1.64 80
-0.169 1.9400001 1.676 83
0.003 1.948 1.575 85
-0.067000002 1.946 1.6109999 69
-0.14 1.939 1.6390001 78
-0.20999999 1.936 1.678 80
-0.043000001 1.943 1.566 78
-0.112 1.943 1.6059999 77
-0.183 1.937 1.64 79
-0.25299999 1.933 1.682 88
-0.089000002 1.938 1.558 82
-0.15700001 1.944 1.607 71
-0.226 1.9349999 1.641 73
-0.29499999 1.931 1.688 80
-0.13500001 1.938 1.554 81
-0.20200001 1.938 1.603 74
-0.27000001 1.934 1.645 83
-0.336 1.924 1.6900001 83
-0.182 1.9349999 1.549 82
-0.24600001 1.9349999 1.601 78
-0.31400001 1.931 1.647 75
-0.37900001 1.925 1.7 79
-0.229 1.9349999 1.548 79
-0.292 1.9349999 1.603 79
-0.35699999 1.929 1.652 74
-0.421 1.921 1.707 76
-0.27500001 1.931 1.544 83
-0.336 1.927 1.6 76
-0.40200001 1.926 1.656 77
-0.46399999 1.92 1.716 77
-0.322 1.927 1.541 82
-0.382 1.926 1.603 77
-0.44499999 1.9220001 1.66 71
-0.509 1.9220001 1.73 75
-0.37 1.932 1.5470001 90
-0.428 1.923 1.605 82
-0.48899999 1.9170001 1.664 77
-0.551 1.915 1.735 79
-0.41800001 1.927 1.545 81
-0.47400001 1.918 1.607 75
-0.53399998 1.915 1.6720001 72
-0.59399998 1.9119999 1.7460001 76
-0.46599999 1.923 1.545 79
-0.52100003 1.92 1.615 79
-0.57999998 1.913 1.681 74
-0.639 1.91 1.7589999 70
-0.51200002 1.914 1.543 87
-0.56800002 1.915 1.619 78
-0.62599999 1.91 1.6900001 73
-0.68400002 1.909 1.773 87
-0.56300002 1.918 1.551 76
-0.61500001 1.911 1.624 80
-0.67299998 1.909 1.701 77
-0.73000002 1.909 1.789 71
-0.61299998 1.915 1.556 74
-0.662 1.905 1.6289999 83
-0.72000003 1.905 1.711 69
-0.77399999 1.902 1.799 70
-0.66299999 1.9119999 1.561 84
-0.71200001 1.906 1.64 71
-0.76599997 1.899 1.72 65
-0.82300001 1.905 1.821 72
-0.71399999 1.909 1.567 80
-0.75999999 1.899 1.646 77
-0.81599998 1.901 1.737 74
-0.86900002 1.899 1.835 74
-0.76599997 1.906 1.574 86
-0.81300002 1.902 1.6619999 73
-0.866 1.899 1.752 74
-0.91799998 1.899 1.855 84
-0.81599998 1.898 1.579 76
-0.86400002 1.897 1.6720001 73
-0.91500002 1.8940001 1.765 71
-0.96499997 1.892 1.87 77
-0.87400001 1.904 1.596 78
-0.91600001 1.895 1.6849999 77
-0.96899998 1.897 1.7869999 67
-1.016 1.893 1.8940001 86
-0.926 1.897 1.604 79
-0.97100002 1.895 1.702 78
-1.0190001 1.892 1.802 76
-1.03 1.824 1.848 49
-0.98100001 1.892 1.614 87
-1.026 1.893 1.7180001 87
-1.04 1.832 1.766 49
-1.034 1.744 1.791 49
-1.039 1.892 1.631 88
-1.051 1.837 1.686 53
-1.046 1.75 1.7079999 44
-1.041 1.674 1.742 49
-1.068 1.8380001 1.601 62
-1.057 1.752 1.627 49
-1.053 1.676 1.658 50
-1.044 1.602 1.692 45
-1.082 1.763 1.554 66
-1.062 1.6720001 1.574 51
-1.053 1.596 1.601 45
-1.064 1.561 1.673 72
-1.1339999 1.75 1.563 62
-1.092 1.6339999 1.559 68
-1.076 1.5549999 1.5829999 67
-1.11 1.556 1.694 73
-1.187 1.739 1.573 62
-1.14 1.623 1.571 62
-1.124 1.551 1.603 75
-1.158 1.554 1.719 72
-1.23 1.712 1.572 65
-1.183 1.605 1.577 63
-1.179 1.554 1.632 80
-1.168 1.5 1.687 43
-1.238 1.638 1.527 67
-1.212 1.567 1.564 57
-1.1849999 1.4910001 1.592 47
-1.2079999 1.4859999 1.701 50
-1.225 1.5420001 1.461 72
-1.212 1.493 1.516 44
-1.226 1.475 1.604 50
-1.193 1.405 1.638 50
-1.234 1.479 1.426 43
-1.225 1.441 1.489 31
-1.176 1.352 1.497 37
-1.186 1.339 1.591 39
-1.243 1.419 1.393 48
-1.194 1.339 1.411 43
-1.211 1.332 1.503 41
-1.216 1.316 1.594 37
-1.221 1.3279999 1.329 48
-1.237 1.325 1.424 47
-1.2180001 1.281 1.476 53
-1.1720001 1.216 1.5039999 41
-1.2589999 1.3049999 1.3329999 50
-1.1900001 1.216 1.334 44
-1.206 1.2130001 1.428 33
-1.215 1.209 1.527 48
-1.226 1.211 1.2640001 39
-1.235 1.206 1.352 49
-1.234 1.188 1.429 36
-1.217 1.161 1.499 40
-1.261 1.186 1.267 63
-1.248 1.163 1.334 49
-1.25 1.151 1.4170001 47
-1.244 1.138 1.503 45
-1.2869999 1.154 1.263 67
-1.25 1.112 1.307 103
-1.179 1.038 1.309 32
-1.1670001 1.023 1.385 51
-1.209 1.033 1.159 59
-1.2029999 1.021 1.2309999 47
-1.2 1.011 1.307 44
-1.193 1.003 1.391 63
-1.24 1.0089999 1.163 59
-1.233 0.99900001 1.2359999 54
-1.221 0.98400003 1.306 47
-1.212 0.97600001 1.3890001 61
-1.266 0.98000002 1.163 77
-1.252 0.96700001 1.232 52
-1.216 0.93599999 1.277 36
-1.199 0.92500001 1.352 43
-1.244 0.91600001 1.12 42
-1.227 0.90399998 1.1849999 32
-1.21 0.88999999 1.25 31
-1.191 0.87900001 1.322 36
-1.239 0.86699998 1.094 51
-1.223 0.85799998 1.16 47
-1.21 0.84899998 1.23 49
-1.201 0.84799999 1.313 45
-1.206 0.80199999 1.0470001 48
-1.193 0.796 1.112 49
-1.179 0.78899997 1.179 40
-1.168 0.78899997 1.2589999 45
-1.2460001 0.78500003 1.063 61
-1.23 0.78100002 1.1289999 52
-1.219 0.77700001 1.201 45
-1.206 0.778 1.283 47
-1.2410001 0.741 1.041 36
-1.229 0.74000001 1.11 33
-1.215 0.73799998 1.181 31
-1.201 0.74000001 1.26 40
-1.281 0.72399998 1.059 39
-1.266 0.72399998 1.127 38
-1.255 0.72399998 1.2029999 34
-1.2359999 0.72600001 1.281 38
-1.316 0.70300001 1.072 66
-1.2970001 0.70200002 1.14 54
-1.2869999 0.70599997 1.2180001 45
-1.27 0.71100003 1.3 56
-1.24 0.625 0.99599999 53
-1.229 0.62900001 1.0650001 45
-1.222 0.63499999 1.142 42
-1.202 0.63999999 1.216 36
-1.302 0.61699998 1.033 30
-1.283 0.62 1.098 33
-1.253 0.616 1.1569999 32
-1.217 0.616 1.219 32
-1.3329999 0.59299999 1.044 56
-1.316 0.59799999 1.113 57
-1.296 0.60299999 1.184 51
-1.277 0.61199999 1.2640001 44
-1.337 0.55699998 1.035 53
-1.323 0.565 1.107 52
-1.298 0.56900001 1.1720001 48
-1.277 0.57999998 1.252 44
-1.326 0.51599997 1.016 66
-1.3049999 0.523 1.081 58
-1.284 0.52899998 1.149 39
-1.273 0.546 1.237 42
-1.329 0.48100001 1.008 66
-1.308 0.48899999 1.073 60
-1.289 0.498 1.142 55
-1.257 0.50800002 1.209 50
-1.339 0.44800001 1.006 60
-1.3200001 0.45899999 1.072 56
-1.302 0.47 1.143 52
-1.273 0.484 1.214 45
-1.247 0.38499999 0.92900002 43
-1.29 0.41600001 1.039 61
-1.306 0.44 1.137 48
-1.279 0.456 1.21 54
-1.307 0.36899999 0.96600002 58
-1.248 0.37099999 0.99699998 50
-1.229 0.384 1.062 46
-1.283 0.42699999 1.204 52
-1.332 0.34200001 0.977 61
-1.313 0.35699999 1.041 56
-1.275 0.368 1.094 55
-1.215 0.37599999 1.132 40
-1.321 0.30599999 0.963 56
-1.309 0.324 1.0319999 46
-1.3 0.34400001 1.108 51
-1.2819999 0.36700001 1.186 48
-1.3150001 0.27200001 0.95300001 65
-1.3 0.29100001 1.0190001 54
-1.289 0.31099999 1.091 46
-1.2869999 0.33899999 1.183 48
-1.271 0.23100001 0.91600001 57
-1.303 0.25999999 1.015 56
-1.284 0.27900001 1.081 59
-1.276 0.308 1.166 45
-1.242 0.19599999 0.89099997 13
-1.238 0.21799999 0.95899999 53
-1.28 0.249 1.072 58
-1.2690001 0.278 1.153 50
-1.273 0.17 0.91000003 13
-1.253 0.191 0.96700001 8
-1.2180001 0.20900001 1.015 48
-1.261 0.249 1.14 61
-1.29 0.141 0.91900003 53
-1.268 0.163 0.97500002 49
-1.2460001 0.186 1.034 10
-1.21 0.212 1.0880001 49
-1.303 0.111 0.926 14
-1.286 0.13600001 0.98500001 65
-1.265 0.16 1.046 56
-1.2359999 0.19 1.107 34
-1.312 0.081 0.93000001 53
-1.294 0.107 0.98900002 57
-1.271 0.133 1.0470001 55
-1.252 0.16500001 1.1160001 46
-1.301 0.048999999 0.921 53
-1.299 0.077 0.99000001 57
-1.2819999 0.105 1.053 53
-1.258 0.139 1.118 50
-1.258 0.017999999 0.88999999 51
-1.286 0.046999998 0.97799999 35
-1.289 0.077 1.056 56
-1.263 0.112 1.118 48
-1.2589999 -0.011 0.89099997 13
-1.243 0.017000001 0.94499999 52
-1.277 0.048 1.045 43
-1.277 0.086000003 1.127 49
-1.29 -0.041000001 0.91299999 13
-1.255 -0.0099999998 0.954 8
-1.227 0.018999999 1.002 45
-1.273 0.059 1.1210001 45
-1.2970001 -0.071999997 0.91900003 61
-1.298 -0.041000001 0.986 53
-1.238 -0.0070000002 1.011 9
-1.226 0.030999999 1.0779999 48
-1.2180001 -0.096000001 0.86500001 13
-1.279 -0.068999998 0.972 73
-1.286 -0.035 1.049 48
-1.232 0.0049999999 1.081 43
-1.265 -0.13 0.89999998 9
-1.216 -0.093999997 0.926 52
-1.2819999 -0.064000003 1.046 59
-1.2640001 -0.021 1.108 41
-1.285 -0.163 0.917 14
-1.252 -0.125 0.954 6
-1.2079999 -0.086999997 0.986 46
-1.275 -0.048999999 1.1160001 47
-1.2920001 -0.19400001 0.92500001 55
-1.285 -0.15800001 0.98100001 58
-1.225 -0.115 1 8
-1.225 -0.072999999 1.073 72
-1.197 -0.20900001 0.861 13
-1.29 -0.189 0.98799998 59
-1.265 -0.147 1.035 53
-1.197 -0.097000003 1.0470001 36
-1.194 -0.237 0.86299998 12
-1.216 -0.206 0.93400002 60
-1.277 -0.177 1.046 54
-1.244 -0.12800001 1.089 37
-1.0829999 -0.241 0.787 19
-1.199 -0.23100001 0.92500001 9
-1.238 -0.2 1.017 68
-1.2589999 -0.15700001 1.103 49
-1.079 -0.26699999 0.78899997 19
-1.096 -0.237 0.85000002 10
-1.191 -0.219 0.98199999 10
-1.262 -0.185 1.107 51
-1.077 -0.29300001 0.792 24
-1.077 -0.259 0.83899999 11
-1.1720001 -0.243 0.96899998 8
-1.2079999 -0.20299999 1.062 69
-1.03 -0.30700001 0.76300001 9
-0.56800002 -0.15000001 0.44400001 1
-1.072 -0.24699999 0.889 11
-1.175 -0.22400001 1.035 43
-0.66100001 -0.213 0.493 4
-1.069 -0.30899999 0.84200001 12
-1.069 -0.271 0.89099997 11
-1.0880001 -0.23199999 0.96100003 95
-0.60299999 -0.20999999 0.454 4
-1.067 -0.33500001 0.84600002 9
-1.059 -0.294 0.88700002 11
-1.057 -0.249 0.93599999 12
-0.56599998 -0.212 0.43000001 6
-0.62699997 -0.212 0.50099999 2
-0.57599998 -0.17299999 0.48500001 3
-1.058 -0.273 0.94 12
-0.55699998 -0.22400001 0.428 10
-0.579 -0.211 0.46599999 2
-1.057 -0.34400001 0.89499998 12
0 0 0 0
-0.583 -0.25 0.45199999 11
-0.53100002 -0.207 0.43099999 3
-0.60100001 -0.20999999 0.51200002 2
-0.51499999 -0.15700001 0.461 3
-0.60900003 -0.278 0.477 8
-0.51700002 -0.215 0.42300001 6
-0.56 -0.20999999 0.48100001 2
-0.53299999 -0.175 0.47999999 2
-0.65200001 -0.31600001 0.51700002 8
-0.514 -0.228 0.42500001 7
-0.51899999 -0.208 0.449 2
-1.0369999 -0.36700001 0.93900001 9
-0.64700001 -0.33199999 0.51999998 8
-0.53500003 -0.252 0.447 6
-0.47999999 -0.205 0.41800001 4
-0.55400002 -0.20900001 0.50400001 4
-0.63300002 -0.34299999 0.51499999 8
-0.58200002 -0.28999999 0.49200001 6
-0.479 -0.21699999 0.421 7
-0.514 -0.207 0.47099999 3
-0.62400001 -0.35699999 0.51499999 8
-0.59799999 -0.315 0.51099998 7
0 0 0 0
-0.477 -0.204 0.44 3
-0.61000001 -0.368 0.50999999 10
-0.58899999 -0.32800001 0.50999999 7
-0.49700001 -0.252 0.44499999 7
-0.44800001 -0.204 0.41600001 5
-0.60100001 -0.38100001 0.51099998 10
-0.57999998 -0.34 0.50800002 7
0 0 0 0
-0.44 -0.212 0.412 9
-0.588 -0.39199999 0.50800002 8
-0.56800002 -0.34999999 0.50400001 7
-0.54900002 -0.31 0.50300002 6
0 0 0 0
-0.57300001 -0.40200001 0.50300002 13
-0.56 -0.36300001 0.50400001 7
-0.54299998 -0.32300001 0.50300002 6
-0.45899999 -0.24600001 0.43700001 8
-0.56199998 -0.41299999 0.50300002 10
-0.54799998 -0.373 0.50099999 6
-0.53899997 -0.33700001 0.50599998 6
0 0 0 0
-0.551 -0.42500001 0.50199997 14
-0.542 -0.38699999 0.50400001 7
-0.52600002 -0.345 0.49900001 6
-0.51300001 -0.30500001 0.498 9
-0.537 -0.43399999 0.498 10
-0.53200001 -0.398 0.50199997 7
-0.51800001 -0.35699999 0.49900001 6
-0.50700003 -0.317 0.498 9
-0.528 -0.44600001 0.5 10
-0.52100003 -0.40799999 0.5 7
-0.509 -0.36700001 0.49700001 6
-0.5 -0.32800001 0.49700001 9
-0.51300001 -0.454 0.49599999 11
-0.50999999 -0.41800001 0.49900001 7
-0.49599999 -0.375 0.49200001 6
-0.49399999 -0.34 0.49599999 9
-0.5 -0.463 0.49399999 10
-0.49900001 -0.428 0.49700001 7
-0.49200001 -0.38999999 0.49599999 7
-0.48300001 -0.34900001 0.493 9
-0.491 -0.47600001 0.49700001 11
-0.48899999 -0.43900001 0.49599999 7
-0.479 -0.39700001 0.491 8
-0.47499999 -0.359 0.49000001 9
-0.479 -0.48500001 0.49599999 10
-0.477 -0.44800001 0.495 7
-0.47 -0.40700001 0.49000001 7
-0.46700001 -0.36899999 0.48899999 9
-0.46399999 -0.49200001 0.493 14
-0.46200001 -0.454 0.49000001 6
-0.461 -0.41800001 0.49000001 8
-0.45899999 -0.38 0.48899999 9
-0.44499999 -0.49399999 0.48500001 14
-0.44999999 -0.46200001 0.48800001 6
-0.45100001 -0.42699999 0.48800001 8
-0.45100001 -0.391 0.48800001 9
-0.41600001 -0.48300001 0.46599999 13
-0.43799999 -0.47 0.486 7
-0.44100001 -0.43700001 0.48699999 6
-0.442 -0.40099999 0.48699999 9
-0.391 -0.47400001 0.449 12
-0.43000001 -0.48300001 0.48899999 8
-0.43000001 -0.44600001 0.486 8
-0.43399999 -0.41100001 0.486 9
-0.37400001 -0.47499999 0.44299999 12
-0.419 -0.493 0.48899999 10
-0.41999999 -0.45500001 0.48500001 8
-0.42699999 -0.42300001 0.48699999 9
-0.35600001 -0.47299999 0.43399999 11
-0.40099999 -0.493 0.48100001 10
-0.40700001 -0.461 0.48100001 8
-0.41600001 -0.43099999 0.484 9
-0.33899999 -0.47299999 0.428 11
-0.37599999 -0.484 0.46399999 9
-0.39899999 -0.472 0.48300001 8
-0.405 -0.43900001 0.48100001 9
-0.32499999 -0.47499999 0.42399999 11
-0.354 -0.477 0.449 8
-0.38800001 -0.48100001 0.48199999 10
-0.396 -0.449 0.48100001 9
-0.308 -0.472 0.41600001 11
-0.33500001 -0.47299999 0.43900001 8
-0.37799999 -0.491 0.48300001 12
-0.38499999 -0.45699999 0.47799999 9
0 0 0 0
-0.317 -0.46900001 0.428 10
-0.35800001 -0.48699999 0.47 11
-0.373 -0.46399999 0.47499999 10
-0.28099999 -0.47499999 0.40900001 10
-0.30599999 -0.47600001 0.42899999 8
-0.33700001 -0.47999999 0.45500001 10
-0.36700001 -0.479 0.47999999 11
0 0 0 0
0 0 0 0
-0.315 -0.472 0.44 10
-0.359 -0.49000001 0.48199999 13
-0.25299999 -0.47499999 0.40000001 10
-0.27700001 -0.47499999 0.41600001 8
-0.30199999 -0.47499999 0.43599999 9
-0.34299999 -0.49200001 0.47499999 12
0 0 0 0
-0.25999999 -0.47 0.40599999 9
-0.28600001 -0.472 0.426 9
-0.31999999 -0.48100001 0.456 11
-0.22499999 -0.472 0.38999999 9
-0.25 -0.477 0.40799999 8
-0.273 -0.47299999 0.42199999 9
-0.29800001 -0.47099999 0.43799999 10
0 0 0 0
0 0 0 0
-0.25400001 -0.46399999 0.40799999 9
-0.285 -0.47400001 0.433 10
-0.2 -0.47099999 0.38299999 9
-0.223 -0.47600001 0.398 8
0 0 0 0
-0.266 -0.46599999 0.419 10
0 0 0 0
0 0 0 0
-0.228 -0.46700001 0.39899999 9
0 0 0 0
-0.17299999 -0.46200001 0.37099999 9
-0.197 -0.47299999 0.38800001 7
-0.21799999 -0.47299999 0.39899999 8
-0.241 -0.472 0.412 10
0 0 0 0
0 0 0 0
0 0 0 0
0 0 0 0
-0.15099999 -0.46200001 0.366 9
-0.17200001 -0.46900001 0.37900001 7
0 0 0 0
-0.20900001 -0.46000001 0.38999999 10
0 0 0 0
0 0 0 0
-0.175 -0.458 0.375 8
0 0 0 0
-0.12899999 -0.463 0.36399999 9
-0.148 -0.46799999 0.37200001 7
0 0 0 0
-0.184 -0.46000001 0.38 10
0 0 0 0
0 0 0 0
-0.153 -0.461 0.37 8
0 0 0 0
-0.107 -0.46000001 0.359 9
-0.125 -0.465 0.36500001 7
0 0 0 0
-0.16 -0.45899999 0.37 9
0 0 0 0
0 0 0 0
-0.13 -0.45899999 0.36199999 7
0 0 0 0
-0.086000003 -0.45699999 0.354 9
-0.102 -0.461 0.35800001 7
0 0 0 0
-0.13500001 -0.45500001 0.359 9
0 0 0 0
0 0 0 0
-0.107 -0.45699999 0.35499999 7
0 0 0 0
-0.066 -0.45899999 0.35499999 9
-0.082000002 -0.465 0.35800001 7
0 0 0 0
-0.112 -0.45300001 0.35100001 9
0 0 0 0
0 0 0 0
-0.086000003 -0.45699999 0.35100001 7
0 0 0 0
-0.046 -0.461 0.35499999 9
-0.061000001 -0.46200001 0.35299999 7
0 0 0 0
-0.090999998 -0.456 0.347 9
0 0 0 0
0 0 0 0
-0.064999998 -0.458 0.34799999 7
0 0 0 0
-0.011 -0.199 0.153 9
-0.039999999 -0.46200001 0.352 7
0 0 0 0
-0.068999998 -0.454 0.34099999 8
0 0 0 0
0 0 0 0
-0.044 -0.45300001 0.34099999 7
0 0 0 0
-0.0020000001 -0.184 0.142 3
-0.0080000004 -0.2 0.152 2
0 0 0 0
-0.046999998 -0.45100001 0.33399999 8
0 0 0 0
0 0 0 0
-0.0089999996 -0.183 0.13699999 2
0 0 0 0
0.0040000002 -0.18799999 0.146 3
0 -0.199 0.15099999 2
0 0 0 0
-0.011 -0.192 0.141 3
0 0 0 0
0 0 0 0
-0.001 -0.18700001 0.139 2
0 0 0 0
0.013 -0.2 0.155 1
0.0080000004 -0.198 0.15099999 2
0 0 0 0
-0.0020000001 -0.18799999 0.13699999 3
0 0 0 0
0 0 0 0
0.0070000002 -0.182 0.13500001 2
0 0 0 0
0.050999999 -0.461 0.36199999 4
0.032000002 -0.37099999 0.28200001 1
0 0 0 0
0.0060000001 -0.18799999 0.13600001 3
0 0 0 0
0 0 0 0
0.029999999 -0.36199999 0.26899999 1
0 0 0 0
0.074000001 -0.48300001 0.382 10
0.064000003 -0.493 0.377 8
0 0 0 0
0.032000002 -0.38999999 0.28099999 2
0 0 0 0
0 0 0 0
0.063000001 -0.48699999 0.36199999 9
0 0 0 0
0.093999997 -0.48199999 0.38499999 10
0.086000003 -0.49399999 0.38 8
0 0 0 0
0.063000001 -0.484 0.34799999 9
0 0 0 0
0 0 0 0
0.085000001 -0.48300001 0.361 8
0 0 0 0
0.116 -0.48300001 0.38999999 10
0.108 -0.493 0.38299999 8
0 0 0 0
0.086000003 -0.484 0.34900001 10
0 0 0 0
0 0 0 0
0.107 -0.484 0.36300001 9
0 0 0 0
0.13699999 -0.48199999 0.39500001 10
0.13 -0.49000001 0.384 8
0 0 0 0
0.108 -0.47799999 0.34599999 9
0 0 0 0
0 0 0 0
0.13 -0.48300001 0.36500001 9
0 0 0 0
0.15899999 -0.48199999 0.40099999 10
0.153 -0.48899999 0.38800001 8
0 0 0 0
0.13500001 -0.486 0.354 10
0 0 0 0
0 0 0 0
0.153 -0.479 0.366 9
0 0 0 0
0.18099999 -0.48199999 0.40700001 10
0.176 -0.48800001 0.39300001 9
0 0 0 0
0.15800001 -0.47999999 0.352 10
0 0 0 0
0 0 0 0
0.176 -0.477 0.36899999 8
0 0 0 0
0.204 -0.47999999 0.414 11
0.20200001 -0.491 0.40200001 7
0 0 0 0
0.18000001 -0.472 0.35100001 9
0 0 0 0
0 0 0 0
0.204 -0.48199999 0.37900001 8
0 0 0 0
0.228 -0.47999999 0.42300001 11
0.228 -0.49200001 0.41 8
0 0 0 0
0.208 -0.47499999 0.35800001 9
0 0 0 0
0 0 0 0
0.229 -0.47999999 0.38299999 8
0 0 0 0
0.25 -0.47600001 0.428 11
0.252 -0.48800001 0.41499999 9
0 0 0 0
0.237 -0.47799999 0.366 10
0 0 0 0
0 0 0 0
0.259 -0.486 0.396 8
0 0 0 0
0.27399999 -0.47299999 0.43599999 12
0.28099999 -0.49000001 0.42699999 9
0 0 0 0
0.266 -0.479 0.37400001 11
0 0 0 0
0 0 0 0
0.28400001 -0.479 0.39899999 9
0 0 0 0
0.30500001 -0.479 0.45300001 12
0.30700001 -0.486 0.43399999 9
0 0 0 0
0.294 -0.47499999 0.37900001 11
0 0 0 0
0.31200001 -0.47099999 0.426 10
0.317 -0.48300001 0.41299999 9
0 0 0 0
0.331 -0.47499999 0.463 12
0 0 0 0
0 0 0 0
0.32699999 -0.47600001 0.389 12
0 0 0 0
0.345 -0.47299999 0.44100001 10
0.35100001 -0.48500001 0.42699999 10
0 0 0 0
0.359 -0.47400001 0.47499999 13
0.36700001 -0.48199999 0.45699999 10
0 0 0 0
0.36000001 -0.47299999 0.39899999 13
0 0 0 0
0.373 -0.46900001 0.45100001 11
0.38 -0.477 0.433 10
0 0 0 0
0.39399999 -0.47799999 0.49599999 14
0.40099999 -0.48199999 0.472 10
0.40000001 -0.479 0.44299999 10
0.40099999 -0.479 0.417 12
0.41299999 -0.479 0.50599998 13
0.41800001 -0.48100001 0.479 10
0.417 -0.47799999 0.449 10
0 0 0 0
0.42500001 -0.47400001 0.509 15
0.435 -0.479 0.486 11
0.43700001 -0.477 0.45699999 11
0.43900001 -0.47600001 0.43000001 13
0.44400001 -0.47400001 0.51999998 13
0.45199999 -0.47600001 0.493 11
0.45300001 -0.47299999 0.463 11
0.461 -0.47600001 0.44 13
0.46000001 -0.47299999 0.528 14
0.472 -0.47600001 0.50300002 11
0.472 -0.47099999 0.47 10
0.479 -0.47299999 0.44499999 13
0.48100001 -0.47299999 0.54000002 15
0.491 -0.47400001 0.51099998 11
0.49599999 -0.47299999 0.48199999 11
0.505 -0.47400001 0.45699999 14
0.49599999 -0.46900001 0.546 13
0.50800002 -0.47 0.51800001 10
0.51499999 -0.46900001 0.49000001 11
0.52499998 -0.47 0.465 12
0.51599997 -0.46799999 0.55800003 13
0.53100002 -0.47 0.52999997 10
0.53899997 -0.46900001 0.50199997 10
0.55000001 -0.47 0.47499999 13
0.53799999 -0.46799999 0.57099998 12
0.55000001 -0.46599999 0.53899997 9
0.56199998 -0.46700001 0.51200002 10
0.57300001 -0.46599999 0.484 13
0.55599999 -0.46399999 0.579 12
0.57499999 -0.46599999 0.55299997 10
0.58399999 -0.463 0.52200001 10
0.59799999 -0.463 0.495 12
0.58099997 -0.465 0.59500003 11
0.59899998 -0.46399999 0.565 9
0.61199999 -0.46200001 0.53600001 9
0.62699997 -0.463 0.509 12
0.60399997 -0.463 0.60799998 10
0.62400001 -0.46200001 0.579 9
0.63800001 -0.46000001 0.54900002 9
0.65899998 -0.46200001 0.52499998 11
0.63099998 -0.463 0.62599999 10
0.65200001 -0.461 0.59500003 9
0.67400002 -0.463 0.56999999 9
0.69300002 -0.46200001 0.542 10
0.65600002 -0.46200001 0.64099997 10
0.68199998 -0.46000001 0.61199999 9
0.70599997 -0.46200001 0.58700001 9
0.72799999 -0.461 0.56 10
0.68900001 -0.463 0.66299999 10
0.71399999 -0.46000001 0.63099998 10
0.73699999 -0.458 0.60299999 9
0.76700002 -0.46000001 0.57999998 10
0.727 -0.46700001 0.68900001 8
0.75700003 -0.46399999 0.66000003 7
0.78500003 -0.463 0.63200003 7
0.81099999 -0.461 0.60399997 8
0.75400001 -0.463 0.70499998 8
0.78799999 -0.46000001 0.67699999 7
0.81800002 -0.458 0.64999998 8
0.85000002 -0.45699999 0.62400001 8
0.78600001 -0.461 0.72600001 8
0.82099998 -0.456 0.69599998 8
0.85900003 -0.45500001 0.67299998 8
0.89700001 -0.45500001 0.64899999 9
0.81999999 -0.458 0.74699998 8
0.861 -0.45300001 0.72100002 8
0.90700001 -0.45500001 0.70099998 8
0.94400001 -0.45100001 0.67400002 9
0.85500002 -0.45500001 0.76999998 9
0.90399998 -0.45100001 0.74800003 8
0.95200002 -0.45100001 0.727 8
1.006 -0.45100001 0.70899999 9
0.89899999 -0.45500001 0.801 9
0.95899999 -0.45300001 0.78399998 8
1.01 -0.44999999 0.76200002 9
1.071 -0.44999999 0.74599999 9
0.94599998 -0.454 0.833 9
1.013 -0.45199999 0.81900001 8
1.069 -0.447 0.79699999 8
1.137 -0.44600001 0.78299999 9
1 -0.454 0.87099999 11
1.067 -0.44800001 0.85299999 8
1.141 -0.447 0.84200001 9
1.214 -0.44299999 0.82700002 9
1.013 -0.435 0.87300003 11
1.0829999 -0.42699999 0.85699999 11
1.155 -0.42199999 0.84399998 11
1.242 -0.421 0.838 12
1.016 -0.412 0.86699998 11
1.092 -0.403 0.85600001 11
1.165 -0.396 0.84299999 11
1.247 -0.38999999 0.83399999 60
1.024 -0.38999999 0.866 12
1.101 -0.37900001 0.85600001 10
1.174 -0.36899999 0.84200001 11
1.2539999 -0.359 0.83200002 12
1.0369999 -0.37 0.86799997 11
1.11 -0.35499999 0.85500002 11
1.181 -0.34200001 0.83999997 11
1.2640001 -0.33000001 0.83200002 61
1.043 -0.34799999 0.866 12
1.115 -0.33000001 0.852 11
1.189 -0.315 0.83999997 11
1.27 -0.30000001 0.82999998 12
1.049 -0.32600001 0.86400002 11
1.124 -0.30599999 0.852 11
1.199 -0.289 0.84100002 5
1.266 -0.26699999 0.82200003 0
1.056 -0.30399999 0.86299998 11
1.0779999 -0.26800001 0.81199998 0
1.199 -0.25999999 0.83600003 11
1.2819999 -0.23899999 0.82800001 57
1.063 -0.28200001 0.86199999 1
1.136 -0.25600001 0.85000002 63
1.206 -0.233 0.83499998 12
1.2819999 -0.208 0.82300001 12
1.053 -0.255 0.84899998 63
1.1339999 -0.23 0.84399998 12
1.215 -0.206 0.83700001 11
1.225 -0.169 0.78299999 12
1.073 -0.236 0.85900003 11
1.143 -0.205 0.84500003 11
1.12 -0.163 0.76800001 11
1.197 -0.13600001 0.76200002 1
1.076 -0.213 0.85600001 11
1.064 -0.167 0.78299999 10
1.133 -0.139 0.77399999 1
2.8710001 -0.259 1.822 79
1.051 -0.185 0.83099997 12
1.046 -0.141 0.76599997 2
2.711 -0.27000001 1.845 12
2.8789999 -0.191 1.822 86
0.97100002 -0.15000001 0.764 9
1.178 -0.132 0.85799998 0
2.7179999 -0.208 1.8430001 90
2.881 -0.123 1.8200001 81
1.075 -0.14300001 0.84100002 1
2.566 -0.23100001 1.863 107
2.7219999 -0.146 1.841 95
2.875 -0.055 1.814 103
2.421 -0.27000001 1.887 22
2.5680001 -0.175 1.859 104
2.7190001 -0.083999999 1.835 75
2.875 0.012 1.812 59
2.424 -0.219 1.881 101
2.573 -0.118 1.857 90
2.7309999 -0.022 1.84 97
2.881 0.079999998 1.8150001 80
2.427 -0.167 1.876 98
2.5810001 -0.061000001 1.859 89
2.7279999 0.039999999 1.836 41
2.8800001 0.147 1.8150001 88
2.4349999 -0.115 1.876 98
2.5810001 -0.0040000002 1.855 88
2.7290001 0.102 1.836 88
2.881 0.21600001 1.817 87
2.4389999 -0.063000001 1.874 97
2.589 0.052999999 1.858 53
2.7309999 0.16500001 1.837 89
2.8710001 0.28299999 1.814 83
0 0 0 0
2.5910001 0.11 1.858 85
2.7249999 0.227 1.834 85
2.8640001 0.34999999 1.813 86
0.62300003 0.0099999998 0.47600001 4
2.5840001 0.167 1.852 93
2.7190001 0.289 1.832 82
2.8559999 0.41800001 1.813 90
0.63 0.024 0.48100001 7
0 0 0 0
2.72 0.35299999 1.836 82
2.8469999 0.48500001 1.813 80
0.63599998 0.037999999 0.484 7
0.64600003 0.07 0.463 5
2.714 0.41499999 1.836 89
2.835 0.551 1.813 81
0.63599998 0.052000001 0.484 9
0.64600003 0.085000001 0.463 6
2.7049999 0.477 1.835 85
2.8239999 0.61799997 1.814 83
0.62300003 0.064000003 0.47400001 8
0.63300002 0.097999997 0.45500001 4
2.7049999 0.54100001 1.841 85
2.812 0.685 1.816 87
0.61299998 0.077 0.46599999 6
0.58700001 0.104 0.42300001 7
2.698 0.60399997 1.8430001 54
2.7950001 0.75 1.8150001 85
0.59600002 0.088 0.454 10
0.58999997 0.118 0.426 9
2.694 0.66799998 1.848 26
2.7850001 0.81800002 1.8200001 88
0.57599998 0.097999997 0.43799999 12
0.57800001 0.12899999 0.41800001 8
0 0 0 0
2.783 0.88800001 1.832 30
0.574 0.11 0.43799999 12
0 0 0 0
0.56099999 0.167 0.389 10
0 0 0 0
0.56999999 0.122 0.435 12
0.56400001 0.153 0.412 8
0.56199998 0.18099999 0.39199999 8
0.55299997 0.205 0.37 10
0.57200003 0.13600001 0.43799999 11
0 0 0 0
0.54699999 0.19 0.384 10
0.53799999 0.214 0.36300001 10
0.56099999 0.147 0.43000001 11
0.55599999 0.178 0.40900001 9
0.542 0.20200001 0.38299999 9
0.53299999 0.226 0.36300001 10
0.55500001 0.15800001 0.42699999 11
0 0 0 0
0.52100003 0.208 0.37200001 10
0 0 0 0
0 0 0 0
0.52700001 0.19499999 0.39199999 9
0.53100002 0.226 0.382 9
0.509 0.245 0.354 11
0.54299998 0.18099999 0.421 10
0 0 0 0
0 0 0 0
0 0 0 0
0 0 0 0
0.51800001 0.219 0.391 9
0.51499999 0.24699999 0.377 8
0.5 0.26899999 0.35600001 10
0.52999997 0.20299999 0.41499999 11
0 0 0 0
0 0 0 0
0 0 0 0
0 0 0 0
0.49599999 0.236 0.38100001 9
0.50099999 0.27000001 0.375 8
0.47600001 0.28600001 0.34900001 10
0.51499999 0.22400001 0.40799999 10
0 0 0 0
0 0 0 0
0 0 0 0
0 0 0 0
0.48899999 0.25999999 0.382 9
0.47400001 0.28400001 0.36300001 8
0.45899999 0.30599999 0.34599999 10
0.50300002 0.24600001 0.40400001 10
0 0 0 0
0 0 0 0
0 0 0 0
0 0 0 0
0.463 0.27399999 0.37 9
0.461 0.30599999 0.36300001 8
0.43599999 0.31999999 0.34 10
0.48500001 0.26499999 0.396 10
0 0 0 0
0.43200001 0.30000001 0.345 8
0 0 0 0
0 0 0 0
0.449 0.294 0.36700001 8
0 0 0 0
0.41299999 0.333 0.33399999 10
0.47299999 0.287 0.39399999 10
0 0 0 0
0.42500001 0.32600001 0.35100001 9
0 0 0 0
0 0 0 0
0.43000001 0.31 0.36199999 8
0 0 0 0
0.396 0.35100001 0.33399999 10
0.45300001 0.30399999 0.38600001 9
0 0 0 0
0.403 0.33899999 0.34400001 8
0 0 0 0
0 0 0 0
0.412 0.32699999 0.35699999 9
0 0 0 0
0.38 0.37 0.33399999 10
0.44100001 0.32600001 0.38499999 9
0 0 0 0
0.38699999 0.35600001 0.34299999 8
0 0 0 0
0 0 0 0
0.396 0.345 0.35499999 9
0 0 0 0
0.361 0.384 0.333 10
0.419 0.34 0.37599999 9
0 0 0 0
0.36399999 0.36700001 0.33700001 8
0 0 0 0
0.405 0.34400001 0.36899999 9
0.384 0.366 0.35699999 8
0 0 0 0
0.34400001 0.40200001 0.33500001 10
0 0 0 0
0 0 0 0
0.35299999 0.391 0.34299999 8
0 0 0 0
0.38499999 0.359 0.36300001 10
0.37099999 0.38699999 0.359 8
0 0 0 0
0.31999999 0.41 0.33000001 9
0 0 0 0
0 0 0 0
0.33500001 0.40599999 0.34200001 8
0 0 0 0
0.36899999 0.37799999 0.36199999 10
0.354 0.405 0.359 8
0 0 0 0
0.29899999 0.42199999 0.32800001 9
0 0 0 0
0 0 0 0
0.31400001 0.419 0.34 8
0 0 0 0
0.35299999 0.396 0.361 9
0.336 0.42199999 0.359 7
0 0 0 0
0.27700001 0.43000001 0.32499999 8
0 0 0 0
0 0 0 0
0.292 0.42899999 0.336 8
0 0 0 0
0.33199999 0.41 0.35600001 9
0.315 0.43399999 0.35499999 7
0 0 0 0
0.252 0.43399999 0.31900001 8
0 0 0 0
0 0 0 0
0.26899999 0.435 0.331 7
0 0 0 0
0.31 0.421 0.34999999 9
0.28999999 0.44100001 0.34799999 7
0 0 0 0
0.23800001 0.45500001 0.32699999 8
0 0 0 0
0 0 0 0
0.249 0.449 0.33199999 7
0 0 0 0
0.289 0.43399999 0.34599999 9
0.266 0.449 0.34200001 6
0 0 0 0
0.213 0.456 0.32100001 8
0 0 0 0
0 0 0 0
0 0 0 0
0 0 0 0
0.264 0.43900001 0.33700001 8
0.25 0.46900001 0.347 6
0 0 0 0
0.19599999 0.47400001 0.32800001 8
0 0 0 0
0 0 0 0
0.204 0.46000001 0.32499999 7
0 0 0 0
0.249 0.461 0.34299999 9
0.219 0.46200001 0.333 5
0 0 0 0
0.18099999 0.49900001 0.34 9
0 0 0 0
0 0 0 0
0.193 0.49399999 0.34200001 8
0 0 0 0
0.222 0.463 0.333 8
0.20100001 0.479 0.336 5
0 0 0 0
0.155 0.498 0.33500001 10
0 0 0 0
0 0 0 0
0.15899999 0.47 0.31900001 7
0 0 0 0
0.198 0.46799999 0.32699999 8
0.18700001 0.50999999 0.34999999 7
0 0 0 0
0.133 0.505 0.336 9
0 0 0 0
0 0 0 0
0.14399999 0.49900001 0.33399999 8
0 0 0 0
0.184 0.50099999 0.34200001 9
0.16 0.50800002 0.34200001 7
0 0 0 0
0.109 0.50099999 0.33000001 9
0 0 0 0
0 0 0 0
0.122 0.50999999 0.33700001 8
0 0 0 0
0.155 0.491 0.32699999 9
0.13699999 0.51999998 0.34400001 7
0 0 0 0
0.089000002 0.51999998 0.34099999 9
0 0 0 0
0 0 0 0
0.1 0.51700002 0.33700001 8
0 0 0 0
0.133 0.50700003 0.33000001 9
0.113 0.52600002 0.34200001 7
0 0 0 0
0.068000004 0.54100001 0.35299999 5
0 0 0 0
0 0 0 0
0.078000002 0.52999997 0.34299999 7
0 0 0 0
0.109 0.51099998 0.32699999 9
0.090000004 0.53899997 0.34599999 6
0 0 0 0
0.045000002 0.55900002 0.36300001 9
0 0 0 0
0 0 0 0
0.059 0.58399999 0.375 10
0.121 2.03 1.319 138
0.088 0.53600001 0.33700001 9
0.068999998 0.57099998 0.36300001 3
0 0 0 0
0.071999997 1.925 1.25 117
0 0 0 0
0.056000002 0.57800001 0.36500001 8
0.029999999 0.54900002 0.35100001 3
0.032000002 2.096 1.363 51
0.064000003 0.55599999 0.34400001 4
0.041000001 0.55900002 0.352 6
0.064000003 1.941 1.24 150
-0.013 2.105 1.369 51
0.052999999 0.58499998 0.36000001 9
0 0 0 0
0.022 2.135 1.362 48
-0.059 2.1110001 1.375 52
0.037 0.55500001 0.34 9
0 0 0 0
-0.025 2.1489999 1.37 47
-0.105 2.1129999 1.3789999 51
0.023 0.54500002 0.33199999 9
0.0089999996 2.187 1.365 77
-0.074000001 2.152 1.372 44
-0.152 2.118 1.385 48
0 0 0 0
-0.041000001 2.1900001 1.364 100
-0.123 2.164 1.38 55
-0.199 2.1240001 1.392 51
-0.012 2.1830001 1.3200001 18
-0.092 2.191 1.363 97
-0.17299999 2.1730001 1.388 59
-0.24600001 2.1259999 1.398 48
-0.064000003 2.171 1.308 91
-0.14300001 2.1849999 1.358 74
-0.222 2.177 1.392 71
-0.29300001 2.1240001 1.402 48
-0.117 2.1889999 1.317 71
-0.19400001 2.1819999 1.3559999 72
-0.271 2.1730001 1.392 79
-0.34099999 2.128 1.41 48
-0.17 2.187 1.312 72
-0.245 2.181 1.355 70
-0.32100001 2.1719999 1.395 80
-0.389 2.1289999 1.418 45
-0.223 2.1830001 1.308 72
-0.296 2.1760001 1.354 67
-0.37099999 2.1700001 1.398 75
-0.43700001 2.1300001 1.426 50
-0.27599999 2.1800001 1.306 72
-0.347 2.171 1.352 71
-0.41999999 2.164 1.399 72
-0.486 2.1329999 1.4349999 44
-0.329 2.175 1.303 74
-0.398 2.168 1.353 65
-0.472 2.1670001 1.4069999 69
-0.53299999 2.1270001 1.4400001 48
-0.38100001 2.1659999 1.298 79
-0.44999999 2.1619999 1.353 67
-0.52100003 2.1600001 1.409 68
-0.58099997 2.1229999 1.446 51
-0.421 2.0940001 1.257 150
-0.50199997 2.1589999 1.3559999 66
-0.51099998 1.927 1.263 150
-0.63 2.119 1.454 47
-0.47299999 2.0910001 1.257 150
-0.484 1.8839999 1.187 22
-0.54900002 1.898 1.251 151
-0.67699999 2.1099999 1.4579999 43
-0.48800001 1.937 1.168 63
-0.52499998 1.86 1.177 24
-0.63099998 2.0109999 1.334 150
-0.69599998 2.017 1.404 109
-0.523 1.882 1.138 70
-0.57099998 1.8559999 1.181 63
-0.64899999 1.914 1.278 150
-0.69099998 1.8710001 1.314 44
-0.56400001 1.855 1.126 81
-0.66100001 1.983 1.2690001 150
-0.68300003 1.876 1.261 40
-0.72899997 1.851 1.312 136
-0.62400001 1.885 1.15 65
-0.68900001 1.9170001 1.234 83
-0.73799998 1.893 1.283 150
-0.87400001 2.085 1.4910001 46
-0.755 2.108 1.2920001 37
-0.72600001 1.881 1.219 58
-0.792 1.904 1.301 154
-0.92199999 2.073 1.497 46
-0.778 2.0179999 1.244 150
-0.77399999 1.874 1.224 150
-0.94400001 2.1340001 1.472 75
-0.96899998 2.0599999 1.503 47
-0.76800001 1.8559999 1.152 49
-0.94199997 2.1370001 1.4069999 77
-1.002 2.1340001 1.4859999 67
-1.021 2.053 1.515 49
-0.94400001 2.132 1.334 26
-0.95899999 2.0469999 1.36 150
-1.061 2.135 1.501 75
-1.068 2.0369999 1.52 56
-0.92000002 1.948 1.229 58
-1.023 2.0569999 1.3789999 150
-1.089 2.072 1.474 38
-1.0779999 1.954 1.475 42
-0.97100002 1.934 1.2309999 41
-1.039 1.971 1.335 121
-1.09 1.967 1.415 39
-1.086 1.8710001 1.431 45
-1.031 1.9349999 1.243 34
-1.0700001 1.921 1.3150001 47
-1.094 1.873 1.364 38
-1.2309999 2.0209999 1.566 86
-1.086 1.924 1.249 45
-1.105 1.878 1.301 42
-1.258 2.0480001 1.51 109
-1.243 1.946 1.528 67
-1.114 1.8660001 1.226 46
-1.277 2.059 1.4450001 53
-1.265 1.96 1.465 53
-1.261 1.8839999 1.501 78
-1.288 2.0420001 1.358 42
-1.266 1.939 1.378 48
-1.285 1.895 1.437 40
-1.26 1.798 1.454 49
-1.283 1.929 1.3 60
-1.3 1.8940001 1.365 41
-1.28 1.8 1.385 58
-1.262 1.72 1.413 41
-1.303 1.859 1.27 57
-1.304 1.806 1.321 66
-1.27 1.705 1.332 51
-1.272 1.659 1.385 64
-1.318 1.7869999 1.24 81
-1.274 1.682 1.25 72
-1.288 1.65 1.3099999 72
-1.265 1.579 1.341 61
-1.275 1.6440001 1.158 51
-1.307 1.6440001 1.242 81
-1.25 1.53 1.2359999 62
-1.238 1.479 1.278 48
-1.3049999 1.6 1.146 60
-1.244 1.4910001 1.146 51
-1.2640001 1.478 1.216 44
-1.28 1.464 1.289 49
-1.27 1.483 1.082 53
-1.291 1.476 1.156 55
-1.291 1.442 1.209 42
-1.2309999 1.349 1.211 49
-1.314 1.46 1.086 58
-1.265 1.381 1.102 93
-1.2460001 1.332 1.1390001 52
-1.26 1.323 1.211 51
-1.262 1.336 1.0140001 64
-1.27 1.322 1.077 60
-1.283 1.311 1.1440001 54
-1.258 1.266 1.183 98
-1.3 1.311 1.016 68
-1.284 1.276 1.062 92
-1.24 1.212 1.081 46
-1.25 1.206 1.151 43
-1.262 1.212 0.96100003 71
-1.272 1.207 1.027 44
-1.288 1.204 1.098 47
-1.281 1.184 1.156 77
-1.307 1.1950001 0.97100002 66
-1.314 1.189 1.0369999 65
-1.319 1.178 1.101 57
-1.308 1.159 1.158 69
-1.35 1.176 0.98000002 68
-1.346 1.1619999 1.039 64
-1.2589999 1.075 1.029 93
-1.228 1.0420001 1.067 54
-1.26 1.045 0.89399999 64
-1.2539999 1.033 0.94800001 59
-1.2589999 1.027 1.01 54
-1.252 1.017 1.068 53
-1.296 1.022 0.89999998 67
-1.2970001 1.018 0.95999998 61
-1.286 1.003 1.013 58
-1.2819999 0.99699998 1.075 76
-1.3329999 1 0.90700001 76
-1.326 0.99199998 0.96399999 68
-1.319 0.98100001 1.02 64
-1.303 0.96899998 1.075 77
-1.319 0.94 0.87900001 57
-1.2869999 0.917 0.91799998 40
-1.277 0.90700001 0.97100002 36
-1.26 0.89600003 1.023 42
-1.2970001 0.87800002 0.84899998 60
-1.286 0.87199998 0.90100002 68
-1.275 0.86299998 0.954 60
-1.2640001 0.85900003 1.011 66
-1.251 0.80299997 0.80400002 71
-1.2359999 0.79699999 0.852 60
-1.2309999 0.79400003 0.90700001 68
-1.2180001 0.79100001 0.95999998 59
-1.285 0.78200001 0.81199998 77
-1.273 0.77899998 0.86400002 69
-1.2690001 0.77899998 0.92000002 69
-1.2589999 0.77899998 0.97799999 60
-1.284 0.73900002 0.79900002 55
-1.271 0.73699999 0.84899998 47
-1.2640001 0.73799998 0.90399998 40
-1.253 0.74000001 0.96100003 41
-1.326 0.722 0.81300002 51
-1.316 0.72299999 0.86699998 53
-1.301 0.72100002 0.91799998 38
-1.289 0.72500002 0.97600001 40
-1.363 0.699 0.824 78
-1.357 0.70499998 0.88200003 72
-1.341 0.70499998 0.93400002 63
-1.33 0.71100003 0.99400002 58
-1.2819999 0.61900002 0.76499999 65
-1.278 0.62699997 0.81999999 63
-1.267 0.63 0.87199998 58
-1.271 0.64499998 0.93900001 67
-1.324 0.60000002 0.77999997 46
-1.307 0.60399997 0.82800001 43
-1.2869999 0.60399997 0.875 44
-1.267 0.60900003 0.926 49
-1.3710001 0.58200002 0.79799998 66
-1.357 0.58899999 0.85000002 64
-1.35 0.59799999 0.90799999 62
-1.3380001 0.60799998 0.96700001 49
-1.3839999 0.54900002 0.79699999 65
-1.368 0.55599999 0.84799999 61
-1.362 0.56699997 0.90600002 57
-1.35 0.57999998 0.96600002 60
-1.3890001 0.51200002 0.79100001 69
-1.374 0.52200001 0.84299999 64
-1.363 0.53200001 0.898 59
