# .PCD v0.7 - Point Cloud Data file format
VERSION 0.7
FIELDS x y z intensity
SIZE 4 4 4 4
TYPE F F F F
COUNT 1 1 1 1
WIDTH 1912
HEIGHT 1
VIEWPOINT 0 0 0 1 0 0 0
POINTS 1912
DATA ascii
0.82599998 -0.46000001 0.61900002 8
1.058 -0.40900001 0.866 11
1.034 -0.45199999 0.81599998 8
0.93699998 -0.45300001 0.71600002 8
0.87099999 -0.46000001 0.64399999 9
1.058 -0.38299999 0.86199999 11
1.084 -0.44499999 0.84899998 9
0.98900002 -0.45199999 0.74900001 8
0.91000003 -0.454 0.66399997 9
1.063 -0.35800001 0.861 11
1.101 -0.42399999 0.85699999 10
1.05 -0.45100001 0.787 8
0.958 -0.45100001 0.69199997 9
1.068 -0.33500001 0.86199999 11
1.108 -0.39899999 0.85600001 11
1.107 -0.44600001 0.82300001 9
1.015 -0.44999999 0.72500002 10
1.0700001 -0.31 0.86000001 11
1.1109999 -0.373 0.85399997 10
1.149 -0.433 0.847 11
1.076 -0.447 0.75999999 9
1.071 -0.28600001 0.85900003 4
1.119 -0.34799999 0.85500002 11
1.156 -0.40700001 0.84600002 11
1.1440001 -0.44600001 0.801 9
1.075 -0.26199999 0.85900003 11
1.119 -0.32100001 0.85000002 10
1.163 -0.38 0.84500003 11
1.21 -0.44 0.83999997 12
1.077 -0.23800001 0.85799998 11
1.13 -0.29800001 0.85500002 7
1.171 -0.354 0.84500003 11
1.222 -0.412 0.84100002 12
1.077 -0.214 0.85699999 11
1.1210001 -0.26899999 0.84500003 6
1.176 -0.32699999 0.84399998 11
1.227 -0.38299999 0.838 12
1.033 -0.182 0.81999999 11
1.13 -0.245 0.84899998 11
1.181 -0.30000001 0.84299999 9
1.2359999 -0.354 0.838 12
0.977 -0.15099999 0.77499998 8
1.128 -0.219 0.84500003 11
1.182 -0.27200001 0.83999997 5
1.24 -0.32499999 0.83499998 12
1.061 -0.141 0.84100002 0
1.118 -0.192 0.83600003 11
1.192 -0.24600001 0.84399998 11
1.249 -0.29699999 0.83600003 10
0.43399999 -0.048 0.34400001 7
0.43200001 -0.064000003 0.322 6
0.421 -0.077 0.296 6
0.414 -0.088 0.27599999 6
0.43799999 -0.039000001 0.347 7
0.43200001 -0.054000001 0.32100001 6
0.42500001 -0.068000004 0.29800001 6
0.41999999 -0.079000004 0.278 7
0 0 0 0
0 0 0 0
0 0 0 0
0 0 0 0
0.447 -0.021 0.354 8
0.43900001 -0.035999998 0.32600001 6
0.43399999 -0.048999999 0.303 6
0.42500001 -0.059999999 0.27900001 7
0 0 0 0
0 0 0 0
0 0 0 0
0 0 0 0
0.454 -0.0020000001 0.361 8
0.447 -0.017000001 0.33199999 6
0.44299999 -0.029999999 0.30899999 6
0.43700001 -0.041000001 0.28600001 7
0 0 0 0
0 0 0 0
0 0 0 0
0 0 0 0
0.461 0.017000001 0.368 8
0.45699999 0.0020000001 0.34 6
0.458 -0.0099999998 0.31900001 6
0.44299999 -0.021 0.289 7
2.345 0.13500001 1.878 53
0 0 0 0
0 0 0 0
0 0 0 0
2.3540001 0.186 1.891 85
0.45699999 0.022 0.34099999 7
0.463 0.0099999998 0.32300001 6
0.44999999 0 0.29300001 7
2.3410001 0.234 1.888 76
0 0 0 0
0 0 0 0
0 0 0 0
2.326 0.28200001 1.883 87
0.47299999 0.043000001 0.35499999 6
0.47600001 0.030999999 0.333 6
0.45500001 0.02 0.29699999 7
2.3269999 0.331 1.892 83
2.477 0.28400001 1.867 70
0 0 0 0
0 0 0 0
2.312 0.37900001 1.888 75
2.464 0.33700001 1.864 88
0.47299999 0.052999999 0.333 7
0.47099999 0.043000001 0.308 8
2.303 0.42699999 1.89 79
2.4579999 0.391 1.868 89
2.595 0.35100001 1.834 24
0 0 0 0
2.296 0.47499999 1.8940001 87
2.447 0.44400001 1.868 86
2.602 0.412 1.846 77
0.47499999 0.066 0.31299999 8
2.2839999 0.52200001 1.895 88
2.434 0.49700001 1.868 87
2.592 0.47099999 1.847 94
0 0 0 0
2.267 0.56800002 1.893 88
2.425 0.55000001 1.872 92
2.5799999 0.52999997 1.848 81
2.7090001 0.50800002 1.803 1
2.2550001 0.61500001 1.895 82
2.411 0.602 1.873 91
2.5650001 0.58700001 1.849 84
2.7349999 0.57999998 1.83 89
2.247 0.66299999 1.901 79
2.395 0.65399998 1.873 83
2.5550001 0.64600003 1.852 86
2.7190001 0.64399999 1.83 88
2.2260001 0.708 1.897 75
2.381 0.70599997 1.875 92
2.536 0.70300001 1.851 85
2.7030001 0.70700002 1.831 95
2.2160001 0.755 1.903 80
2.3640001 0.75800002 1.876 90
2.5220001 0.76099998 1.854 85
2.6900001 0.77200001 1.836 82
2.1989999 0.801 1.904 81
2.3469999 0.80900002 1.878 92
2.5079999 0.81900001 1.859 87
2.674 0.83600003 1.839 85
2.181 0.84600002 1.905 83
2.335 0.86199999 1.8839999 89
2.4920001 0.87699997 1.864 85
2.6530001 0.89899999 1.841 88
2.171 0.89399999 1.914 99
2.3150001 0.912 1.885 87
2.4619999 0.93000001 1.858 73
2.566 0.93699998 1.796 7
2.0999999 0.91600001 1.868 16
2.217 0.93000001 1.823 11
2.369 0.95599997 1.8049999 12
2.526 0.991 1.7869999 10
2.0680001 0.95300001 1.858 13
2.191 0.97500002 1.8200001 13
2.415 1.039 1.859 26
2.586 1.085 1.849 79
2.033 0.98799998 1.845 4
2.256 1.064 1.8940001 94
2.408 1.102 1.874 90
2.5669999 1.15 1.8559999 90
0 0 0 0
2.233 1.113 1.896 83
2.388 1.159 1.88 90
2.536 1.2079999 1.8559999 79
0.45199999 0.243 0.41999999 10
2.2179999 1.166 1.905 95
2.3610001 1.2130001 1.881 78
2.51 1.2690001 1.86 85
0 0 0 0
2.1949999 1.215 1.909 50
2.332 1.266 1.883 79
2.483 1.33 1.865 83
0.433 0.25600001 0.41100001 10
2.187 1.274 1.927 10
2.3039999 1.319 1.886 82
2.45 1.388 1.867 87
0 0 0 0
0 0 0 0
2.279 1.375 1.893 68
2.4170001 1.446 1.87 86
0.41600001 0.27000001 0.405 10
0.44800001 0.28799999 0.40599999 8
2.26 1.434 1.905 49
2.3859999 1.506 1.876 95
0 0 0 0
0 0 0 0
2.233 1.489 1.9119999 10
2.346 1.559 1.875 83
0.398 0.28200001 0.39899999 10
0.428 0.30199999 0.40000001 8
0 0 0 0
2.309 1.615 1.878 91
0 0 0 0
0 0 0 0
0.42399999 0.31099999 0.375 8
0 0 0 0
0.391 0.303 0.40400001 10
0.40200001 0.31 0.38800001 8
0 0 0 0
0.42699999 0.33000001 0.361 7
0 0 0 0
0 0 0 0
0.39700001 0.31999999 0.36500001 8
0.42399999 0.34400001 0.366 9
0.37900001 0.31900001 0.40400001 9
0.38800001 0.32800001 0.38800001 8
0 0 0 0
0 0 0 0
0 0 0 0
0 0 0 0
0.38100001 0.33700001 0.36500001 8
0.38800001 0.347 0.34999999 9
0.36500001 0.33399999 0.40400001 10
0.36899999 0.34 0.384 8
0 0 0 0
0 0 0 0
0 0 0 0
0 0 0 0
0.36000001 0.34900001 0.36000001 8
0.377 0.37 0.35600001 9
0.34900001 0.347 0.40099999 9
0.35100001 0.35299999 0.38100001 7
0 0 0 0
0 0 0 0
0 0 0 0
0 0 0 0
0.33700001 0.35800001 0.354 8
0.35100001 0.37900001 0.34900001 8
0.338 0.36500001 0.405 9
0.33700001 0.37 0.38299999 8
0 0 0 0
0 0 0 0
0 0 0 0
0 0 0 0
0.32300001 0.37599999 0.35800001 8
0.322 0.38299999 0.34 9
0.322 0.37799999 0.40400001 9
0.31999999 0.384 0.38299999 8
0 0 0 0
0 0 0 0
0 0 0 0
0 0 0 0
0.30500001 0.38999999 0.35800001 8
0.303 0.39700001 0.34099999 9
0.31099999 0.39700001 0.40900001 9
0.30700001 0.40200001 0.38800001 7
0 0 0 0
0 0 0 0
0 0 0 0
0 0 0 0
0.289 0.40700001 0.361 8
0.289 0.419 0.34900001 8
0.29100001 0.40400001 0.40400001 7
0.29300001 0.421 0.39399999 8
0 0 0 0
0 0 0 0
0 0 0 0
0 0 0 0
0.26899999 0.417 0.36000001 8
0.26499999 0.42500001 0.345 8
1.321 2.007 1.944 12
0.273 0.43200001 0.39199999 8
0 0 0 0
0 0 0 0
1.262 2.007 1.9170001 18
0 0 0 0
0.252 0.433 0.36399999 8
0.24699999 0.44299999 0.34999999 8
1.201 2.0009999 1.885 21
0.25099999 0.43799999 0.38800001 8
0 0 0 0
0 0 0 0
1.14 1.993 1.852 38
0 0 0 0
0.23 0.44100001 0.36300001 7
0.219 0.442 0.34200001 7
1.087 1.995 1.83 31
0.234 0.45199999 0.38999999 7
0 0 0 0
0 0 0 0
0 0 0 0
0 0 0 0
0.20900001 0.44999999 0.36300001 7
0.19499999 0.44499999 0.33899999 5
0.97899997 1.99 1.7819999 6
0 0 0 0
0 0 0 0
0 0 0 0
0.92699999 1.988 1.76 72
0.21699999 0.49700001 0.41600001 4
0.20100001 0.49000001 0.389 4
0.182 0.47600001 0.35699999 6
0.875 1.984 1.737 75
0.81400001 1.98 1.643 6
0 0 0 0
0 0 0 0
0.82300001 1.979 1.715 79
0 0 0 0
0.171 0.477 0.373 2
0.161 0.48800001 0.36199999 9
0.77700001 1.983 1.702 88
0.70999998 1.969 1.6059999 20
0.65700001 1.973 1.53 94
0.59399998 1.955 1.443 3
0.727 1.977 1.681 89
0.66299999 1.973 1.598 81
0.60699999 1.974 1.521 84
0 0 0 0
0.67900002 1.973 1.6619999 80
0.61500001 1.974 1.587 85
0.55900002 1.977 1.516 40
0.123 0.486 0.35600001 8
0.63300002 1.973 1.649 78
0.56699997 1.969 1.572 83
0 0 0 0
0 0 0 0
0.58600003 1.97 1.633 85
0 0 0 0
0.121 0.51899999 0.39399999 5
0.106 0.523 0.38100001 8
0.54000002 1.964 1.6160001 77
0.47400001 1.9680001 1.554 32
0 0 0 0
0 0 0 0
0.495 1.964 1.604 84
0 0 0 0
0.096000001 0.51599997 0.389 8
0.079999998 0.52499998 0.382 9
0 0 0 0
0.097999997 0.50599998 0.39500001 6
0 0 0 0
0 0 0 0
0.105 0.50700003 0.40900001 7
0 0 0 0
0.07 0.50599998 0.38 8
0.054000001 0.514 0.373 8
0 0 0 0
0.074000001 0.5 0.38800001 7
0 0 0 0
0 0 0 0
0.081 0.49599999 0.39500001 9
0 0 0 0
0.046 0.50300002 0.377 8
0.028999999 0.50999999 0.37099999 4
0.07 0.49900001 0.39500001 9
0.052000001 0.50400001 0.38800001 6
0 0 0 0
0 0 0 0
0 0 0 0
0 0 0 0
0.023 0.50099999 0.375 7
0.0049999999 0.509 0.37200001 1
0.048 0.495 0.389 8
0.029999999 0.50300002 0.38600001 6
0 0 0 0
-0.024 1.932 1.416 20
0 0 0 0
0 0 0 0
0 0.51999998 0.389 2
-0.07 1.934 1.423 106
0.027000001 0.49000001 0.38299999 8
0.0080000004 0.49599999 0.38 4
-0.039999999 1.936 1.454 94
-0.115 1.928 1.424 98
0 0 0 0
-0.0099999998 1.92 1.471 4
-0.083999999 1.937 1.457 97
-0.161 1.924 1.428 93
0.0060000001 0.495 0.384 8
-0.054000001 1.941 1.487 104
-0.12899999 1.936 1.46 89
-0.206 1.918 1.4299999 89
0 0 0 0
-0.096000001 1.938 1.4859999 90
-0.17299999 1.9299999 1.461 83
-0.252 1.921 1.442 95
-0.059 1.934 1.498 20
-0.139 1.938 1.488 100
-0.21799999 1.937 1.471 100
-0.29800001 1.919 1.449 96
-0.101 1.9400001 1.501 101
-0.182 1.932 1.4859999 84
-0.26199999 1.929 1.472 90
-0.34299999 1.915 1.456 88
-0.14300001 1.939 1.5 93
-0.22499999 1.9299999 1.487 85
-0.30599999 1.925 1.475 85
-0.38999999 1.9170001 1.469 96
-0.185 1.934 1.4960001 87
-0.26800001 1.923 1.4859999 85
-0.35100001 1.9220001 1.482 89
-0.43799999 1.919 1.482 88
-0.227 1.931 1.494 91
-0.31200001 1.926 1.492 83
-0.396 1.921 1.49 83
-0.48500001 1.915 1.493 84
-0.26899999 1.929 1.494 95
-0.35499999 1.9220001 1.495 84
-0.44100001 1.918 1.4960001 84
-0.53399998 1.92 1.51 78
-0.31099999 1.924 1.492 94
-0.39899999 1.919 1.499 81
-0.48699999 1.919 1.507 80
-0.58200002 1.919 1.525 84
-0.35499999 1.923 1.494 93
-0.44400001 1.918 1.505 84
-0.53200001 1.9119999 1.5140001 77
-0.63099998 1.916 1.538 79
-0.39899999 1.926 1.5 86
-0.48899999 1.92 1.515 93
-0.58099997 1.9170001 1.53 83
-0.68000001 1.914 1.554 84
-0.44100001 1.919 1.499 88
-0.53200001 1.909 1.5140001 83
-0.62900001 1.916 1.543 81
-0.72799999 1.908 1.567 79
-0.48500001 1.916 1.502 94
-0.579 1.913 1.527 87
-0.676 1.913 1.554 77
-0.778 1.903 1.5829999 79
-0.53200001 1.921 1.512 89
-0.62599999 1.913 1.538 80
-0.72399998 1.908 1.566 78
-0.83099997 1.904 1.605 74
-0.57599998 1.9170001 1.516 90
-0.67199999 1.909 1.545 77
-0.77200001 1.904 1.579 79
-0.88099998 1.9 1.622 81
-0.62199998 1.914 1.521 85
-0.722 1.9119999 1.561 87
-0.82200003 1.9 1.5930001 79
-0.935 1.897 1.6440001 74
-0.667 1.911 1.527 85
-0.76700002 1.902 1.566 79
-0.87099999 1.896 1.608 76
-0.98799998 1.8940001 1.666 90
-0.71399999 1.908 1.534 94
-0.81300002 1.893 1.573 79
-0.92400002 1.896 1.628 76
-1.04 1.8839999 1.683 86
-0.76099998 1.903 1.541 82
-0.866 1.897 1.592 87
-0.977 1.895 1.647 73
-1.056 1.813 1.646 63
-0.81 1.903 1.552 87
-0.91900003 1.899 1.61 77
-1.03 1.8890001 1.665 97
-1.0599999 1.727 1.595 65
-0.86199999 1.905 1.566 85
-0.96700001 1.89 1.62 80
-1.056 1.837 1.642 72
-1.073 1.661 1.561 65
-0.90899998 1.897 1.573 88
-1.02 1.888 1.637 93
-1.062 1.753 1.591 63
-1.108 1.631 1.562 59
-0.96200001 1.896 1.587 85
-1.062 1.862 1.635 79
-1.076 1.688 1.557 57
-1.148 1.609 1.5700001 63
-1.012 1.8890001 1.597 90
-1.064 1.772 1.576 53
-1.12 1.6720001 1.567 65
-1.1849999 1.582 1.576 58
-1.0599999 1.877 1.604 82
-1.0930001 1.732 1.562 62
-1.1619999 1.652 1.575 63
-1.202 1.531 1.556 77
-1.072 1.802 1.557 60
-1.137 1.715 1.5700001 60
-1.201 1.628 1.58 64
-1.224 1.487 1.545 54
-1.12 1.79 1.566 65
-1.179 1.694 1.574 56
-1.212 1.568 1.55 67
-1.2 1.391 1.478 65
-1.164 1.771 1.569 58
-1.212 1.66 1.567 64
-1.209 1.492 1.5039999 50
-1.202 1.331 1.448 43
-1.214 1.758 1.579 68
-1.224 1.6 1.5369999 63
-1.233 1.4529999 1.495 62
-1.22 1.29 1.437 79
-1.221 1.687 1.5369999 68
-1.212 1.512 1.477 65
-1.199 1.35 1.418 53
-1.205 1.217 1.391 45
-1.238 1.63 1.508 72
-1.2410001 1.479 1.472 54
-1.227 1.319 1.4170001 46
-1.232 1.189 1.395 45
-1.217 1.529 1.438 96
-1.211 1.378 1.399 75
-1.207 1.24 1.364 78
-1.248 1.15 1.387 50
-1.2359999 1.484 1.419 49
-1.221 1.3279999 1.375 47
-1.23 1.209 1.3609999 51
-1.2029999 1.0599999 1.314 95
-1.235 1.415 1.378 62
-1.228 1.276 1.35 84
-1.243 1.1670001 1.348 48
-1.205 1.013 1.294 44
-1.217 1.332 1.322 44
-1.2180001 1.21 1.309 54
-1.2359999 1.109 1.314 103
-1.226 0.98400003 1.296 48
-1.252 1.3099999 1.326 55
-1.249 1.1849999 1.313 61
-1.196 1.025 1.249 47
-1.223 0.93800002 1.275 46
-1.216 1.215 1.256 52
-1.268 1.15 1.306 70
-1.224 1.002 1.255 52
-1.209 0.884 1.242 35
-1.253 1.197 1.2640001 52
-1.21 1.049 1.221 75
-1.2410001 0.97000003 1.252 55
-1.207 0.84100002 1.224 56
-1.28 1.1670001 1.262 58
-1.223 1.013 1.211 49
-1.222 0.912 1.214 36
-1.188 0.78899997 1.1900001 40
-1.232 1.072 1.189 118
-1.248 0.98699999 1.214 66
-1.219 0.86699998 1.193 38
-1.211 0.76499999 1.199 39
-1.227 1.02 1.16 54
-1.239 0.93400002 1.183 49
-1.199 0.81300002 1.1569999 58
-1.225 0.736 1.199 36
-1.257 0.99599999 1.165 54
-1.227 0.88200003 1.153 34
-1.212 0.78200001 1.154 43
-1.263 0.72100002 1.223 41
-1.261 0.95300001 1.146 60
-1.215 0.83200002 1.124 58
-1.2180001 0.74800003 1.145 41
-1.256 0.68000001 1.205 66
-1.239 0.89200002 1.1059999 39
-1.209 0.78799999 1.102 45
-1.247 0.72799999 1.158 36
-1.222 0.62699997 1.1619999 42
-1.235 0.847 1.084 57
-1.227 0.76099998 1.102 47
-1.285 0.71100003 1.1799999 49
-1.274 0.61799997 1.201 54
-1.216 0.79299998 1.05 53
-1.247 0.73400003 1.105 41
-1.247 0.65399998 1.133 65
-1.2869999 0.58899999 1.204 48
-1.24 0.76899999 1.054 60
-1.283 0.71700001 1.122 46
-1.251 0.62 1.125 40
-1.284 0.55299997 1.193 49
-1.255 0.73799998 1.051 45
-1.27 0.67199999 1.098 68
-1.299 0.60799998 1.1569999 52
-1.276 0.51599997 1.177 46
-1.2920001 0.72000003 1.066 44
-1.238 0.61900002 1.058 41
-1.306 0.57599998 1.153 54
-1.285 0.48699999 1.178 49
-1.298 0.68400002 1.058 67
-1.3049999 0.616 1.103 43
-1.295 0.53600001 1.1339999 44
-1.291 0.45699999 1.177 48
-1.248 0.62099999 1.0039999 60
-1.319 0.58600003 1.103 50
-1.296 0.50300002 1.126 55
-1.272 0.419 1.154 59
-1.312 0.61500001 1.043 42
-1.317 0.54900002 1.091 46
-1.306 0.47299999 1.127 50
-1.2309999 0.375 1.112 45
-1.337 0.58999997 1.051 64
-1.303 0.509 1.0700001 55
-1.306 0.44100001 1.12 48
-1.29 0.36199999 1.16 46
-1.339 0.55299997 1.041 50
-1.314 0.479 1.0700001 56
-1.242 0.38800001 1.059 58
-1.2920001 0.33199999 1.159 46
-1.318 0.509 1.015 59
-1.316 0.44600001 1.064 50
-1.272 0.366 1.0779999 63
-1.275 0.29800001 1.14 51
-1.327 0.477 1.013 65
-1.252 0.39199999 1.005 64
-1.303 0.34400001 1.099 52
-1.278 0.26899999 1.1390001 45
-1.337 0.44600001 1.012 59
-1.275 0.368 1.017 57
-1.293 0.31 1.086 47
-1.234 0.23199999 1.098 60
-1.2539999 0.38499999 0.94099998 64
-1.3150001 0.347 1.0420001 51
-1.2869999 0.278 1.077 61
-1.223 0.20200001 1.086 43
-1.3049999 0.368 0.972 61
-1.309 0.31299999 1.0319999 46
-1.261 0.243 1.052 61
-1.249 0.17900001 1.108 45
-1.33 0.34099999 0.98500001 62
-1.301 0.28 1.021 55
-1.221 0.207 1.016 49
-1.256 0.152 1.113 45
-1.317 0.30500001 0.96899998 55
-1.283 0.245 1.003 63
-1.253 0.184 1.041 11
-1.261 0.125 1.117 52
-1.3150001 0.27200001 0.963 61
-1.233 0.206 0.95999998 48
-1.268 0.15700001 1.051 55
-1.271 0.097999997 1.127 41
-1.268 0.23199999 0.92400002 58
-1.253 0.18000001 0.97399998 10
-1.277 0.12899999 1.057 58
-1.276 0.07 1.132 48
-1.244 0.197 0.903 13
-1.28 0.154 0.99199998 63
-1.288 0.101 1.0650001 59
-1.242 0.041000001 1.103 40
-1.277 0.171 0.92400002 13
-1.29 0.126 0.99800003 64
-1.289 0.072999999 1.066 59
-1.22 0.014 1.085 49
-1.289 0.142 0.93000001 57
-1.298 0.096000001 1.003 61
-1.2589999 0.043000001 1.041 30
-1.2539999 -0.012 1.117 42
-1.298 0.112 0.93400002 15
-1.3 0.066 1.003 62
-1.223 0.014 1.013 47
-1.268 -0.039000001 1.132 52
-1.314 0.082000002 0.94499999 63
-1.265 0.035 0.97600001 31
-1.252 -0.013 1.038 9
-1.255 -0.066 1.123 61
-1.299 0.050000001 0.93300003 49
-1.237 0.0060000001 0.95499998 52
-1.285 -0.041000001 1.067 50
-1.1900001 -0.088 1.068 39
-1.256 0.018999999 0.90200001 50
-1.273 -0.022 0.98400003 9
-1.258 -0.068999998 1.0470001 67
-1.226 -0.118 1.105 35
-1.257 -0.0099999998 0.903 12
-1.301 -0.052000001 1.007 59
-1.196 -0.092 0.99800003 44
-1.249 -0.147 1.13 42
-1.296 -0.041000001 0.93199998 13
-1.229 -0.078000002 0.95300001 61
-1.24 -0.123 1.038 8
-1.257 -0.175 1.142 47
-1.29 -0.071999997 0.92900002 58
-1.214 -0.105 0.94400001 9
-1.265 -0.154 1.064 53
-1.238 -0.2 1.13 58
-1.209 -0.096000001 0.87300003 13
-1.27 -0.14 0.991 9
-1.272 -0.184 1.073 58
-1.137 -0.208 1.044 52
-1.265 -0.131 0.91600001 10
-1.281 -0.171 1.003 59
-1.2130001 -0.20299999 1.028 62
-1.1670001 -0.23999999 1.077 1
-1.29 -0.16500001 0.93699998 54
-1.273 -0.2 1.001 63
-1.176 -0.22400001 1.002 12
-1.016 -0.23199999 0.94400001 25
-1.286 -0.19599999 0.93800002 55
-1.1950001 -0.21600001 0.94400001 47
-1.1210001 -0.23899999 0.96100003 10
-0.99800003 -0.25 0.93300003 10
-1.201 -0.212 0.88 49
-1.188 -0.243 0.94400001 9
-1.0700001 -0.25299999 0.92299998 12
-0.99199998 -0.271 0.93400002 14
-1.202 -0.242 0.88599998 10
-1.075 -0.24600001 0.85900003 11
-1.068 -0.278 0.92699999 12
-0.456 -0.13500001 0.43200001 3
-1.0829999 -0.245 0.80299997 15
-1.073 -0.271 0.86299998 11
-0.50099999 -0.142 0.43900001 3
-0.45500001 -0.145 0.43399999 3
-1.0829999 -0.273 0.80900002 12
-0.54299998 -0.15099999 0.44 3
0 0 0 0
-0.477 -0.163 0.45899999 3
-0.574 -0.15899999 0.43200001 11
-0.58200002 -0.176 0.47499999 7
-1.05 -0.34999999 0.93400002 13
-0.53200001 -0.19499999 0.51700002 4
-0.75700003 -0.229 0.574 2
0 0 0 0
0 0 0 0
-0.53600001 -0.20999999 0.52499998 12
-0.64700001 -0.213 0.495 2
-0.59799999 -0.212 0.49700001 2
-0.55199999 -0.211 0.5 2
-0.50700003 -0.211 0.50199997 4
-0.59100002 -0.211 0.45699999 2
-0.551 -0.20900001 0.46200001 2
-0.50800002 -0.208 0.465 3
-0.47400001 -0.20900001 0.47400001 3
-0.542 -0.208 0.42300001 6
-0.51200002 -0.208 0.43399999 2
-0.47600001 -0.207 0.44 3
-0.44299999 -0.207 0.44800001 3
-0.537 -0.221 0.42399999 10
-0.5 -0.21699999 0.428 7
-0.44499999 -0.205 0.41499999 3
-0.412 -0.20299999 0.421 3
0 0 0 0
-0.48199999 -0.223 0.41800001 8
0 0 0 0
-0.39399999 -0.204 0.40700001 8
-0.56999999 -0.26699999 0.461 6
0 0 0 0
-0.43099999 -0.222 0.412 8
0 0 0 0
-0.62199998 -0.31 0.50999999 10
-0.52999997 -0.27500001 0.472 5
0 0 0 0
-0.38 -0.21799999 0.40200001 8
-0.61500001 -0.32499999 0.51099998 8
-0.56199998 -0.308 0.50700003 7
-0.48199999 -0.27700001 0.47299999 5
0 0 0 0
-0.60100001 -0.336 0.50700003 13
-0.55000001 -0.31900001 0.50300002 7
-0.49900001 -0.301 0.49700001 7
-0.414 -0.26100001 0.44999999 6
-0.59399998 -0.35100001 0.509 8
-0.54100001 -0.33000001 0.50199997 7
-0.491 -0.31099999 0.49599999 7
-0.44600001 -0.294 0.49200001 10
-0.583 -0.36399999 0.50800002 8
-0.53100002 -0.34099999 0.50099999 7
-0.48300001 -0.322 0.49599999 7
-0.44 -0.30399999 0.49200001 10
-0.56900001 -0.375 0.505 7
-0.52200001 -0.35299999 0.50099999 7
-0.472 -0.329 0.49200001 7
-0.43399999 -0.31299999 0.493 10
-0.55800003 -0.38699999 0.50400001 8
-0.514 -0.36500001 0.50199997 7
-0.465 -0.34 0.493 7
-0.42300001 -0.31999999 0.48899999 10
-0.54500002 -0.398 0.50199997 7
-0.49900001 -0.37200001 0.49599999 7
-0.45300001 -0.347 0.48899999 7
-0.41600001 -0.32800001 0.48800001 10
-0.53299999 -0.40900001 0.50099999 8
-0.48800001 -0.382 0.495 6
-0.447 -0.35800001 0.491 7
-0.40900001 -0.33700001 0.48899999 10
-0.51999998 -0.419 0.49900001 8
-0.477 -0.391 0.493 6
-0.43599999 -0.36500001 0.48800001 7
-0.398 -0.34200001 0.48300001 10
-0.50999999 -0.43200001 0.5 8
-0.465 -0.39899999 0.491 6
-0.426 -0.373 0.486 7
-0.39300001 -0.352 0.48699999 10
-0.49599999 -0.44100001 0.498 8
-0.454 -0.40900001 0.49000001 6
-0.41499999 -0.38 0.484 7
0 0 0 0
-0.47499999 -0.44299999 0.48899999 13
-0.43900001 -0.41299999 0.484 6
-0.40599999 -0.389 0.484 7
-0.375 -0.36500001 0.48199999 10
-0.46399999 -0.454 0.49000001 8
-0.42899999 -0.42300001 0.48500001 6
-0.39500001 -0.39500001 0.48100001 7
0 0 0 0
-0.44800001 -0.46000001 0.486 13
-0.41600001 -0.43000001 0.48300001 6
-0.38499999 -0.403 0.48100001 8
-0.35600001 -0.37799999 0.479 10
-0.433 -0.46700001 0.48300001 9
-0.40400001 -0.43799999 0.48100001 6
-0.37599999 -0.41100001 0.48100001 8
0 0 0 0
-0.42199999 -0.477 0.484 13
-0.39399999 -0.447 0.48199999 6
-0.36500001 -0.417 0.47799999 7
-0.34 -0.39199999 0.47799999 10
-0.41100001 -0.48800001 0.486 13
-0.38 -0.45100001 0.47799999 6
-0.35299999 -0.42199999 0.47499999 7
0 0 0 0
-0.39199999 -0.48899999 0.479 14
-0.366 -0.456 0.47499999 6
-0.345 -0.43099999 0.477 7
-0.322 -0.40400001 0.47600001 10
-0.37 -0.48500001 0.46700001 11
-0.35499999 -0.463 0.47499999 7
-0.331 -0.433 0.47099999 7
0 0 0 0
-0.34400001 -0.47400001 0.44999999 12
-0.34 -0.46599999 0.47 6
-0.31999999 -0.43900001 0.47 7
-0.30399999 -0.41499999 0.47299999 10
-0.32499999 -0.472 0.44100001 10
-0.331 -0.477 0.47400001 8
0 0 0 0
0 0 0 0
-0.308 -0.47 0.43399999 11
-0.31999999 -0.484 0.47400001 9
-0.30000001 -0.45100001 0.47 7
-0.28600001 -0.42699999 0.47299999 9
0 0 0 0
-0.30199999 -0.479 0.46399999 10
0 0 0 0
0 0 0 0
-0.27700001 -0.47 0.42399999 10
-0.292 -0.48899999 0.46799999 9
-0.27900001 -0.46200001 0.46900001 7
-0.264 -0.433 0.46599999 9
0 0 0 0
0 0 0 0
-0.26499999 -0.46200001 0.463 9
0 0 0 0
-0.245 -0.46700001 0.412 10
-0.26100001 -0.486 0.45500001 8
0 0 0 0
-0.24600001 -0.44400001 0.46599999 9
0 0 0 0
-0.23999999 -0.47400001 0.43900001 8
-0.24600001 -0.47600001 0.46599999 7
0 0 0 0
-0.21799999 -0.46799999 0.40700001 9
-0.228 -0.477 0.43700001 8
0 0 0 0
-0.228 -0.45500001 0.46599999 10
0 0 0 0
-0.211 -0.46900001 0.426 8
-0.222 -0.48100001 0.46200001 8
0 0 0 0
-0.189 -0.463 0.396 9
0 0 0 0
-0.20999999 -0.48300001 0.45899999 9
-0.206 -0.46000001 0.461 9
0 0 0 0
-0.184 -0.465 0.41600001 8
0 0 0 0
0 0 0 0
-0.163 -0.46000001 0.389 9
0 0 0 0
-0.186 -0.48500001 0.454 9
-0.185 -0.46399999 0.456 9
0 0 0 0
-0.15899999 -0.461 0.40700001 7
0 0 0 0
0 0 0 0
-0.138 -0.46000001 0.38600001 9
0 0 0 0
-0.16 -0.479 0.442 9
-0.16599999 -0.47099999 0.456 9
0 0 0 0
-0.13600001 -0.46200001 0.40400001 8
0 0 0 0
0 0 0 0
-0.115 -0.46000001 0.384 8
0 0 0 0
-0.13699999 -0.47799999 0.435 9
-0.145 -0.47600001 0.45300001 9
0 0 0 0
-0.112 -0.458 0.39700001 7
0 0 0 0
0 0 0 0
-0.090000004 -0.45199999 0.37599999 8
0 0 0 0
-0.115 -0.479 0.43200001 8
-0.125 -0.48300001 0.45199999 10
0 0 0 0
-0.089000002 -0.45300001 0.38999999 7
0 0 0 0
0 0 0 0
-0.068000004 -0.44999999 0.37400001 8
0 0 0 0
-0.092 -0.47600001 0.42500001 8
-0.104 -0.48300001 0.447 10
0 0 0 0
-0.068000004 -0.456 0.391 7
0 0 0 0
0 0 0 0
-0.046999998 -0.454 0.377 8
0 0 0 0
-0.07 -0.47299999 0.41999999 8
-0.082000002 -0.48199999 0.442 10
0 0 0 0
-0.046 -0.442 0.37900001 7
0 0 0 0
0 0 0 0
-0.012 -0.226 0.18799999 21
0 0 0 0
-0.048 -0.46900001 0.414 8
-0.061000001 -0.48100001 0.43700001 10
0 0 0 0
-0.021 -0.36899999 0.31600001 11
0 0 0 0
0 0 0 0
-0.001 -0.183 0.154 2
0 0 0 0
-0.027000001 -0.45199999 0.398 8
-0.039999999 -0.47299999 0.42699999 9
0 0 0 0
-0.0020000001 -0.19 0.163 2
0 0 0 0
0 0 0 0
0.0070000002 -0.185 0.156 2
0 0 0 0
-0.003 -0.18700001 0.16500001 2
-0.0089999996 -0.226 0.20299999 11
0 0 0 0
0.0060000001 -0.18799999 0.162 2
0 0 0 0
0 0 0 0
0.025 -0.29499999 0.25299999 1
0 0 0 0
0.0049999999 -0.18700001 0.16500001 2
0 -0.198 0.177 2
0 0 0 0
0.014 -0.18799999 0.163 1
0 0 0 0
0 0 0 0
0.064000003 -0.484 0.419 10
0 0 0 0
0.013 -0.18700001 0.16500001 2
0.0080000004 -0.198 0.177 2
0 0 0 0
0.057 -0.46399999 0.40700001 4
0 0 0 0
0 0 0 0
0.086999997 -0.48199999 0.42500001 10
0 0 0 0
0.043000001 -0.373 0.331 2
0.016000001 -0.198 0.176 2
0 0 0 0
0.082000002 -0.486 0.43099999 9
0 0 0 0
0 0 0 0
0.111 -0.484 0.43399999 11
0 0 0 0
0.078000002 -0.48500001 0.433 9
0.059999999 -0.47 0.41999999 4
0 0 0 0
0.104 -0.47999999 0.43099999 9
0 0 0 0
0 0 0 0
0.134 -0.48300001 0.442 11
0 0 0 0
0.1 -0.48699999 0.43900001 9
0.082999997 -0.486 0.43599999 10
0 0 0 0
0.127 -0.48100001 0.43900001 10
0 0 0 0
0.093000002 -0.48199999 0.43399999 11
0.162 -0.49200001 0.46000001 11
0 0 0 0
0.122 -0.48300001 0.44 9
0.106 -0.48899999 0.44100001 11
0 0 0 0
0.15099999 -0.48199999 0.447 10
0 0 0 0
0 0 0 0
0.183 -0.48100001 0.461 12
0 0 0 0
0.145 -0.48500001 0.447 10
0.127 -0.48500001 0.44 11
0 0 0 0
0.17399999 -0.48100001 0.45500001 10
0 0 0 0
0 0 0 0
0.20999999 -0.48199999 0.47400001 12
0 0 0 0
0.169 -0.48500001 0.454 10
0.15000001 -0.48500001 0.44499999 11
0 0 0 0
0.198 -0.47799999 0.46200001 10
0 0 0 0
0 0 0 0
0.236 -0.48199999 0.48800001 12
0 0 0 0
0.193 -0.48500001 0.46200001 10
0.17200001 -0.48300001 0.44800001 11
0.252 -0.486 0.5 12
0.23 -0.491 0.486 10
0 0 0 0
0 0 0 0
0.264 -0.48100001 0.50300002 12
0.242 -0.48699999 0.48899999 10
0.219 -0.486 0.472 9
0.197 -0.48300001 0.45500001 11
0.278 -0.48100001 0.51099998 13
0.25299999 -0.48300001 0.491 9
0 0 0 0
0.207 -0.47999999 0.45500001 12
0.294 -0.48199999 0.52200001 13
0.26800001 -0.48500001 0.5 10
0.24699999 -0.49000001 0.486 10
0.223 -0.486 0.46399999 11
0.308 -0.48100001 0.52999997 13
0.28299999 -0.48500001 0.50800002 10
0.25999999 -0.48800001 0.49000001 10
0.236 -0.486 0.46900001 11
0.32600001 -0.484 0.54299998 14
0.296 -0.48300001 0.514 10
0.273 -0.48699999 0.495 10
0.249 -0.48699999 0.47299999 12
0.33899999 -0.47999999 0.54900002 14
0.31299999 -0.486 0.52499998 10
0.28600001 -0.484 0.498 10
0.26100001 -0.48300001 0.47499999 12
0.359 -0.48300001 0.565 14
0.32699999 -0.484 0.53200001 10
0.29899999 -0.48300001 0.50400001 10
0.273 -0.47999999 0.477 12
0.37200001 -0.479 0.57099998 14
0.34299999 -0.484 0.54100001 11
0.31299999 -0.47999999 0.50800002 10
0.289 -0.484 0.486 12
0.38800001 -0.477 0.58099997 14
0.359 -0.48300001 0.55000001 11
0.32800001 -0.47999999 0.51599997 10
0.301 -0.479 0.48699999 12
0.405 -0.47499999 0.59299999 13
0.37400001 -0.48100001 0.55800003 11
0.345 -0.48199999 0.52600002 11
0.31799999 -0.48199999 0.49599999 13
0.42399999 -0.47499999 0.60600001 15
0.38999999 -0.479 0.56599998 11
0.36000001 -0.48100001 0.53299999 11
0.333 -0.48100001 0.50199997 13
0.43900001 -0.47 0.61500001 15
0.41 -0.48100001 0.57999998 11
0.377 -0.47999999 0.542 11
0.34799999 -0.47999999 0.50800002 13
0.45500001 -0.46599999 0.625 11
0.42500001 -0.477 0.588 11
0.39399999 -0.47999999 0.551 11
0.366 -0.48199999 0.51800001 14
0.479 -0.46900001 0.64499998 11
0.442 -0.47499999 0.59799999 10
0.41100001 -0.479 0.56099999 11
0.382 -0.47999999 0.52499998 14
0.49900001 -0.46700001 0.66000003 10
0.46000001 -0.47299999 0.60900003 10
0.426 -0.47400001 0.56599998 11
0.39700001 -0.47799999 0.53100002 14
0.523 -0.46900001 0.68199998 10
0.479 -0.47099999 0.62199998 9
0.44499999 -0.47400001 0.57800001 11
0.41800001 -0.47999999 0.54299998 15
0.54900002 -0.47099999 0.704 10
0.498 -0.46799999 0.63300002 9
0.463 -0.472 0.588 11
0.435 -0.47799999 0.55000001 14
0.56900001 -0.46599999 0.71799999 9
0.52100003 -0.46799999 0.65100002 9
0.48100001 -0.46900001 0.597 10
0.45199999 -0.47499999 0.55800003 14
0.60399997 -0.47299999 0.75099999 7
0.542 -0.46599999 0.66600001 9
0.49900001 -0.46599999 0.60699999 10
0.47 -0.47299999 0.56699997 13
0.62800002 -0.47 0.77100003 8
0.56900001 -0.46700001 0.68599999 9
0.52499998 -0.46799999 0.625 9
0.491 -0.472 0.57800001 13
0.65200001 -0.46599999 0.79000002 8
0.59299999 -0.46599999 0.704 9
0.54699999 -0.46700001 0.63999999 9
0.50800002 -0.46700001 0.58499998 12
0.68300003 -0.46599999 0.81800002 8
0.62 -0.46599999 0.72600001 9
0.57200003 -0.46700001 0.65700001 9
0.53299999 -0.46900001 0.60100001 12
0.71399999 -0.46399999 0.84600002 8
0.65399998 -0.46900001 0.75400001 7
0.59799999 -0.46599999 0.67500001 9
0.55400002 -0.465 0.61199999 16
0.74400002 -0.461 0.87199998 9
0.68099999 -0.46599999 0.77399999 7
0.62699997 -0.46700001 0.69599998 9
0.58200002 -0.46700001 0.63 11
0.77499998 -0.45699999 0.89899999 9
0.713 -0.465 0.80000001 8
0.65399998 -0.465 0.71499997 9
0.60399997 -0.463 0.64200002 10
0.78899997 -0.442 0.90600002 10
0.74599999 -0.46399999 0.82700002 8
0.69199997 -0.47 0.745 8
0.63599998 -0.465 0.66399997 10
0.79299998 -0.42199999 0.903 10
0.77700001 -0.46000001 0.85100001 8
0.71700001 -0.463 0.75999999 8
0.66100001 -0.461 0.67799997 10
0.801 -0.405 0.90499997 10
0.81699997 -0.45899999 0.88499999 9
0.75300002 -0.463 0.78799999 8
0.70899999 -0.47099999 0.71600002 8
0.80800003 -0.38600001 0.90499997 10
0.838 -0.447 0.898 10
0.78899997 -0.46200001 0.81400001 8
0.736 -0.465 0.73100001 8
0.81300002 -0.36700001 0.90399998 10
0.84500003 -0.428 0.89700001 10
0.82599998 -0.45899999 0.84299999 8
0.76899999 -0.463 0.75400001 8
0.81900001 -0.34900001 0.90499997 10
0.85299999 -0.40900001 0.898 10
0.86799997 -0.45699999 0.875 9
0.80299997 -0.45899999 0.77600002 9
0.82499999 -0.331 0.90600002 10
0.85799998 -0.38800001 0.89499998 10
0.88999999 -0.44400001 0.88700002 10
0.84500003 -0.458 0.80500001 9
0.82499999 -0.31099999 0.90100002 7
0.866 -0.36899999 0.89600003 10
0.89999998 -0.42399999 0.88700002 10
0.89600003 -0.45899999 0.84299999 9
0.82700002 -0.29100001 0.89899999 4
0.86900002 -0.34799999 0.89200002 10
0.90799999 -0.40400001 0.88700002 10
0.93900001 -0.45500001 0.87300003 11
0.82999998 -0.273 0.898 9
0.87800002 -0.33000001 0.89499998 10
0.91799998 -0.384 0.88800001 10
0.95899999 -0.43700001 0.88099998 11
0.83999997 -0.25600001 0.90499997 10
0.88499999 -0.31099999 0.89600003 7
0.92400002 -0.36199999 0.88599998 10
0.96600002 -0.41499999 0.87800002 11
0.84200001 -0.237 0.903 10
0.87800002 -0.287 0.884 5
0.93000001 -0.34099999 0.88499999 10
0.97399998 -0.39199999 0.87699997 11
0.84200001 -0.21799999 0.90100002 10
0.88800001 -0.26899999 0.889 10
0.93800002 -0.32100001 0.88499999 10
0.98100001 -0.36899999 0.87400001 11
0.81099999 -0.192 0.86400002 9
0.89700001 -0.25099999 0.89300001 10
0.93900001 -0.29800001 0.88 4
0.98900002 -0.347 0.87300003 11
0.759 -0.163 0.80699998 7
0.898 -0.23 0.88999999 10
0.94499999 -0.27700001 0.88 8
0.99800003 -0.324 0.87400001 11
0.82599998 -0.15899999 0.87599999 1
0.89700001 -0.20900001 0.88499999 10
0.94999999 -0.255 0.87900001 10
1.0089999 -0.30199999 0.87699997 7
0.89700001 -0.153 0.94999999 9
0.82200003 -0.17299999 0.80800003 11
0.95700002 -0.235 0.88099998 10
1.0089999 -0.278 0.87099999 8
0.92299998 -0.138 0.97600001 7
0.82700002 -0.155 0.81099999 4
0.95599997 -0.212 0.87599999 10
1.013 -0.25400001 0.86900002 11
1.865 -0.23899999 1.97 14
0.93099999 -0.154 0.91000003 5
0.90799999 -0.18000001 0.82800001 10
1.0190001 -0.23100001 0.86799997 11
1.857 -0.198 1.961 90
0.97100002 -0.139 0.94800001 8
0.87699997 -0.154 0.79699999 5
1.022 -0.207 0.866 11
1.8609999 -0.16 1.965 99
1.993 -0.242 1.941 22
1.02 -0.155 0.92299998 2
0.94999999 -0.17 0.80199999 10
1.863 -0.121 1.967 100
1.995 -0.199 1.9400001 95
0.94400001 -0.122 0.85299999 4
0.95999998 -0.149 0.80699998 2
1.858 -0.082000002 1.9630001 94
1.999 -0.156 1.943 90
0.91799998 -0.097999997 0.82800001 0
0.954 -0.125 0.79900002 7
1.859 -0.043000001 1.965 89
1.999 -0.112 1.942 94
2.1340001 -0.18099999 1.92 25
0.95300001 -0.103 0.796 5
1.857 -0.0040000002 1.966 86
1.999 -0.068999998 1.941 88
2.128 -0.132 1.9119999 112
2.2650001 -0.193 1.888 5
1.847 0.033 1.9579999 41
2.0009999 -0.026000001 1.944 92
2.132 -0.085000001 1.914 105
0 0 0 0
1.847 0.071000002 1.9630001 84
2.006 0.016000001 1.951 47
2.132 -0.037 1.914 100
0.44499999 -0.017000001 0.37 8
1.845 0.109 1.964 93
1.992 0.059 1.9400001 79
2.142 0.0099999998 1.923 54
0 0 0 0
1.84 0.147 1.964 89
1.99 0.102 1.941 82
2.1300001 0.057 1.914 101
0.45300001 0.003 0.37599999 8
0 0 0 0
1.988 0.145 1.943 93
2.1270001 0.105 1.914 109
2.277 0.068999998 1.892 68
0.51999998 0.063000001 0.55900002 4
1.985 0.18799999 1.9450001 88
2.122 0.152 1.913 101
2.2809999 0.121 1.897 94
0.51700002 0.072999999 0.55800003 4
1.98 0.23100001 1.946 101
2.1170001 0.199 1.9119999 98
2.276 0.17399999 1.896 93
0.514 0.083999999 0.55599999 4
1.975 0.273 1.948 98
2.1129999 0.24699999 1.914 97
2.273 0.227 1.897 95
0.479 0.088 0.51999998 4
1.965 0.315 1.9450001 94
2.109 0.29499999 1.9170001 108
2.266 0.28 1.897 99
0.47799999 0.097999997 0.52200001 10
1.961 0.35800001 1.95 99
2.102 0.34200001 1.918 103
2.26 0.33199999 1.899 97
0.479 0.109 0.52600002 11
1.952 0.40000001 1.949 93
2.092 0.38800001 1.9170001 105
2.2509999 0.38499999 1.899 94
0.472 0.117 0.52100003 11
1.941 0.44100001 1.949 87
2.082 0.435 1.9170001 109
2.2409999 0.43700001 1.9 94
0.46399999 0.125 0.51499999 11
1.932 0.48300001 1.951 96
2.073 0.48199999 1.919 104
2.23 0.48899999 1.9 95
0 0 0 0
1.9220001 0.52499998 1.952 73
2.0580001 0.52700001 1.9170001 92
2.2190001 0.54100001 1.902 94
0.454 0.14300001 0.50999999 11
1.918 0.56800002 1.962 36
2.0480001 0.574 1.92 104
2.2060001 0.59200001 1.904 94
0 0 0 0
1.896 0.60600001 1.9529999 4
2.043 0.62199998 1.929 90
2.1889999 0.64300001 1.903 90
0.44299999 0.15899999 0.505 10
0 0 0 0
2.0280001 0.66799998 1.9299999 91
2.174 0.69400001 1.905 92
0.44100001 0.169 0.50599998 10
0.46399999 0.171 0.486 8
2.0190001 0.71600002 1.937 86
2.158 0.745 1.9069999 96
0.43599999 0.177 0.505 10
0 0 0 0
0.479 0.182 0.46399999 8
2.138 0.79400003 1.9069999 97
0.42899999 0.185 0.50099999 9
0.454 0.189 0.48300001 8
0.47600001 0.193 0.465 7
2.125 0.847 1.914 99
0.43099999 0.19599999 0.50800002 10
0 0 0 0
0.45699999 0.197 0.45100001 9
2.1059999 0.89600003 1.9170001 96
0.42399999 0.20299999 0.50400001 10
0.44100001 0.207 0.479 8
0.45899999 0.211 0.458 8
0 0 0 0
0.41999999 0.212 0.50400001 10
0 0 0 0
0 0 0 0
0.46200001 0.222 0.43000001 10
0.419 0.222 0.50700003 10
0.43399999 0.226 0.48100001 8
0.442 0.227 0.45100001 9
0.45699999 0.233 0.43099999 10
0.412 0.229 0.50400001 10
0 0 0 0
0 0 0 0
0 0 0 0
0.41100001 0.23999999 0.509 10
0.42500001 0.245 0.48300001 8
0.43000001 0.24600001 0.44999999 8
0.442 0.252 0.428 10
0.40599999 0.248 0.509 10
0 0 0 0
0 0 0 0
0 0 0 0
0.37799999 0.242 0.479 3
0.40700001 0.259 0.47499999 8
0.417 0.264 0.449 8
0.41600001 0.264 0.41600001 10
0 0 0 0
0 0 0 0
0 0 0 0
0 0 0 0
1.534 1.072 1.9960001 20
0.40000001 0.27900001 0.47999999 7
0.405 0.28299999 0.45100001 8
0.40000001 0.28200001 0.414 9
1.521 1.11 2.006 93
0 0 0 0
0 0 0 0
0 0 0 0
1.501 1.142 2.007 92
0.373 0.285 0.46200001 5
0.389 0.29899999 0.44800001 8
0.38699999 0.301 0.41600001 9
1.483 1.177 2.0120001 92
1.577 1.261 1.9859999 57
0 0 0 0
0 0 0 0
1.457 1.205 2.0079999 86
1.556 1.301 1.995 83
0.373 0.31400001 0.44499999 8
0.368 0.31400001 0.412 9
1.442 1.243 2.0190001 90
1.529 1.335 1.9960001 95
1.61 1.421 1.964 10
0 0 0 0
1.418 1.274 2.0190001 75
1.502 1.369 1.998 95
1.577 1.456 1.964 4
0.352 0.331 0.41299999 10
1.395 1.3049999 2.02 82
1.473 1.402 1.999 89
1.562 1.51 1.99 65
0 0 0 0
1.3710001 1.337 2.0220001 83
1.4529999 1.444 2.013 86
1.5319999 1.548 1.9960001 69
0.34400001 0.35499999 0.42500001 9
1.35 1.37 2.0280001 84
1.4220001 1.475 2.013 79
0 0 0 0
0 0 0 0
1.323 1.399 2.0280001 80
1.392 1.508 2.016 82
1.462 1.618 2.0020001 21
0.31900001 0.36199999 0.41499999 4
1.3 1.433 2.0339999 84
1.3609999 1.54 2.0190001 85
1.427 1.652 2.006 83
1.484 1.765 1.989 30
1.277 1.466 2.0409999 90
1.332 1.574 2.0250001 78
1.392 1.687 2.0109999 74
1.45 1.808 2.003 93
1.248 1.494 2.039 88
1.301 1.6059999 2.029 86
1.3559999 1.721 2.016 80
1.406 1.84 2.0050001 92
1.222 1.524 2.0439999 85
1.268 1.637 2.0320001 84
1.318 1.753 2.0209999 84
1.3660001 1.878 2.0150001 93
1.194 1.5549999 2.0469999 84
1.233 1.665 2.0320001 88
1.281 1.785 2.026 80
1.321 1.91 2.0190001 95
1.165 1.582 2.0469999 90
1.202 1.698 2.039 84
1.242 1.817 2.0309999 83
1.278 1.943 2.027 99
1.136 1.6109999 2.05 85
1.166 1.724 2.04 88
1.202 1.847 2.036 80
1.233 1.974 2.033 105
1.104 1.637 2.05 96
1.133 1.756 2.0469999 85
1.163 1.878 2.0420001 84
1.177 1.987 2.0209999 104
1.073 1.663 2.0510001 94
1.098 1.786 2.0539999 94
1.122 1.9069999 2.0480001 85
1.114 1.985 1.997 83
1.048 1.7 2.0650001 84
1.064 1.818 2.062 83
1.079 1.932 2.05 87
1.053 1.985 1.976 84
1.017 1.73 2.0699999 76
1.026 1.8430001 2.0639999 84
1.04 1.966 2.062 86
0.99400002 1.985 1.957 75
0.98400003 1.755 2.0710001 77
0.98900002 1.87 2.0680001 82
0.98900002 1.975 2.05 94
0.935 1.9809999 1.9349999 81
0.95200002 1.783 2.0769999 82
0.95200002 1.899 2.0769999 86
0.93400002 1.977 2.0309999 68
0.88 1.983 1.921 78
0.91799998 1.809 2.0799999 88
0.91100001 1.92 2.076 80
0.88099998 1.979 2.0139999 73
0.82300001 1.979 1.903 83
0.88200003 1.832 2.0799999 82
0.87300003 1.948 2.0840001 88
0.82599998 1.974 1.992 75
0.76599997 1.971 1.881 79
0.84899998 1.8609999 2.0880001 84
0.83099997 1.967 2.0829999 88
0.77499998 1.975 1.976 73
0.71499997 1.976 1.875 77
0.815 1.89 2.096 93
0.78299999 1.973 2.0699999 77
0.72299999 1.972 1.959 77
0.66299999 1.976 1.864 74
0.77999997 1.918 2.1040001 85
0.73299998 1.971 2.049 84
0.67199999 1.972 1.9450001 73
0.611 1.971 1.851 81
0.74299997 1.943 2.108 76
0.68400002 1.9680001 2.03 72
0.62300003 1.97 1.931 78
0 0 0 0
0.704 1.9630001 2.108 93
0.63599998 1.966 2.0120001 71
0 0 0 0
0.132 0.509 0.47400001 7
0.66000003 1.9680001 2.0940001 80
0.58600003 1.957 1.988 12
0.13600001 0.51099998 0.495 10
0.116 0.49599999 0.46000001 3
0 0 0 0
0 0 0 0
0 0 0 0
0.097999997 0.47099999 0.43599999 7
0.141 0.49000001 0.51200002 3
0.123 0.49000001 0.491 5
0.103 0.47299999 0.45500001 4
0.086999997 0.472 0.43700001 7
0.12899999 0.486 0.50300002 3
0 0 0 0
0 0 0 0
0.075000003 0.46599999 0.43000001 9
0.116 0.479 0.49200001 2
0.094999999 0.46000001 0.456 4
0.079999998 0.46399999 0.44299999 6
0 0 0 0
0.101 0.45899999 0.46799999 5
0.083999999 0.45699999 0.45100001 5
0 0 0 0
0.052000001 0.458 0.42300001 9
0.090999998 0.45899999 0.465 6
0.075000003 0.46399999 0.45500001 6
0.057999998 0.463 0.44 7
0 0 0 0
0 0 0 0
0 0 0 0
0 0 0 0
0.029999999 0.454 0.41999999 8
0.071999997 0.46200001 0.46200001 9
0.054000001 0.46399999 0.45199999 6
0.035999998 0.456 0.43200001 5
0 0 0 0
0 0 0 0
0 0 0 0
0 0 0 0
0.0089999996 0.45199999 0.419 6
0.050999999 0.45500001 0.44999999 8
0.032000002 0.45100001 0.43700001 4
0.016000001 0.45100001 0.42699999 4
0 0 0 0
0 0 0 0
0 0 0 0
0 0 0 0
-0.012 0.47600001 0.44400001 8
0.030999999 0.454 0.44600001 8
0.013 0.461 0.44499999 5
-0.0040000002 0.46700001 0.44299999 5
0 0 0 0
0 0 0 0
0 0 0 0
0 0 0 0
-0.035999998 0.505 0.47499999 1
0.012 0.458 0.44600001 8
-0.0060000001 0.45899999 0.442 4
-0.026000001 0.49000001 0.46700001 3
-0.185 1.934 1.83 9
0 0 0 0
0 0 0 0
0 0 0 0
-0.23 1.9299999 1.837 70
-0.0070000002 0.46000001 0.44499999 8
-0.028000001 0.48899999 0.472 2
-0.19400001 1.938 1.858 5
-0.27500001 1.929 1.846 83
-0.017000001 0.46700001 0.45100001 5
-0.039999999 0.50300002 0.48500001 0
-0.237 1.9299999 1.857 74
-0.31999999 1.925 1.855 72
0 0 0 0
-0.199 1.9299999 1.865 7
-0.28099999 1.928 1.863 69
-0.366 1.924 1.868 73
0 0 0 0
-0.242 1.931 1.869 77
-0.324 1.9220001 1.8660001 75
-0.412 1.9220001 1.88 75
-0.199 1.931 1.86 11
-0.285 1.926 1.869 82
-0.36899999 1.9220001 1.875 71
-0.458 1.918 1.893 69
-0.242 1.927 1.8559999 73
-0.32800001 1.924 1.873 82
-0.414 1.92 1.885 73
-0.50400001 1.9170001 1.908 77
-0.28400001 1.928 1.858 80
-0.37099999 1.918 1.873 71
-0.458 1.915 1.892 67
-0.551 1.915 1.924 67
-0.32800001 1.929 1.86 83
-0.41499999 1.919 1.881 75
-0.50300002 1.914 1.904 77
-0.60000002 1.9170001 1.946 68
-0.37 1.921 1.855 76
-0.45899999 1.915 1.885 76
-0.55000001 1.913 1.9170001 71
-0.64600003 1.91 1.96 70
-0.41299999 1.921 1.858 80
-0.50300002 1.911 1.891 73
-0.59600002 1.9119999 1.931 67
-0.69300002 1.904 1.976 75
-0.45699999 1.9170001 1.859 71
-0.54799998 1.908 1.899 70
-0.64300001 1.91 1.946 66
-0.74400002 1.905 2.0009999 71
-0.50199997 1.916 1.864 75
-0.59399998 1.9069999 1.909 77
-0.69099998 1.909 1.9630001 68
-0.79299998 1.902 2.0220001 76
-0.54699999 1.9170001 1.8710001 79
-0.63999999 1.9069999 1.921 70
-0.73699999 1.901 1.974 73
-0.84299999 1.899 2.046 67
-0.59200001 1.914 1.876 79
-0.68900001 1.91 1.937 64
-0.787 1.903 1.9960001 66
-0.89600003 1.899 2.075 68
-0.63700002 1.91 1.881 72
-0.73500001 1.905 1.947 75
-0.838 1.902 2.017 68
-0.94599998 1.892 2.096 75
-0.685 1.911 1.891 71
-0.78200001 1.9 1.9579999 78
-0.88499999 1.8940001 2.0320001 69
-0.986 1.865 2.0969999 60
-0.73199999 1.9069999 1.899 72
-0.82800001 1.89 1.966 77
-0.94 1.897 2.0599999 70
-0.99199998 1.777 2.03 54
-0.77999997 1.905 1.909 67
-0.88099998 1.896 1.9910001 66
-0.98500001 1.881 2.0680001 77
-1 1.699 1.973 49
-0.829 1.902 1.919 79
-0.93099999 1.891 2.0050001 77
-0.99900001 1.808 2.0150001 56
-1.005 1.622 1.915 49
-0.87699997 1.896 1.928 85
-0.98100001 1.886 2.0209999 82
-1.005 1.728 1.952 50
-1.017 1.561 1.876 51
-0.92799997 1.895 1.944 75
-1.006 1.8329999 1.987 55
-1.01 1.649 1.891 52
-1.063 1.553 1.901 63
-0.98100001 1.8940001 1.96 78
-1.012 1.749 1.92 52
-1.013 1.574 1.8329999 50
-1.115 1.554 1.938 64
-1.016 1.858 1.941 57
-1.0140001 1.6670001 1.852 44
-1.051 1.5549999 1.84 64
-1.143 1.518 1.931 42
-1.021 1.772 1.87 52
-1.021 1.596 1.798 51
-1.102 1.554 1.87 63
-1.152 1.461 1.898 48
-1.027 1.694 1.808 54
-1.044 1.554 1.776 64
-1.142 1.5369999 1.882 48
-1.147 1.388 1.842 44
-1.033 1.62 1.75 54
-1.092 1.55 1.798 72
-1.161 1.4910001 1.86 41
-1.16 1.342 1.821 45
-1.046 1.562 1.7079999 68
-1.1440001 1.549 1.824 67
-1.161 1.424 1.811 45
-1.1619999 1.285 1.783 50
-1.097 1.5599999 1.73 80
-1.161 1.5 1.796 42
-1.155 1.354 1.756 40
-1.161 1.227 1.744 43
-1.147 1.5549999 1.749 83
-1.176 1.451 1.768 51
-1.184 1.326 1.756 42
-1.173 1.1849999 1.727 33
-1.1670001 1.51 1.723 48
-1.16 1.368 1.698 46
-1.158 1.24 1.678 46
-1.182 1.142 1.7079999 40
-1.1950001 1.476 1.712 52
-1.186 1.336 1.6900001 47
-1.183 1.211 1.677 38
-1.189 1.099 1.687 33
-1.179 1.391 1.641 59
-1.171 1.261 1.627 54
-1.184 1.16 1.6440001 35
-1.202 1.061 1.676 9
-1.184 1.334 1.602 41
-1.181 1.216 1.603 44
-1.2 1.123 1.632 41
-1.196 1.01 1.64 66
-1.201 1.2920001 1.582 55
-1.196 1.177 1.586 34
-1.204 1.0779999 1.607 13
-1.191 0.96100003 1.609 92
-1.184 1.217 1.52 45
-1.211 1.14 1.571 44
-1.175 1.006 1.54 45
-1.22 0.94099998 1.625 48
-1.212 1.1900001 1.517 39
-1.2130001 1.091 1.541 27
-1.225 1.002 1.5779999 61
-1.219 0.89700001 1.601 41
-1.223 1.147 1.495 45
-1.173 1.008 1.46 22
-1.2029999 0.94 1.524 87
-1.212 0.85100001 1.571 56
-1.198 1.073 1.432 60
-1.216 0.99800003 1.485 72
-1.192 0.889 1.4859999 65
-1.206 0.80800003 1.544 65
-1.181 1.011 1.382 57
-1.186 0.93000001 1.4220001 47
-1.192 0.84799999 1.4630001 90
-1.174 0.75 1.4859999 38
-1.207 0.986 1.3839999 48
-1.178 0.88099998 1.388 29
-1.152 0.78200001 1.3940001 34
-1.202 0.73000002 1.5039999 38
-1.206 0.93900001 1.355 44
-1.186 0.84600002 1.374 45
-1.183 0.76499999 1.413 38
-1.222 0.70599997 1.5140001 49
-1.194 0.88700002 1.316 38
-1.159 0.78799999 1.322 44
-1.192 0.73400003 1.405 32
-1.171 0.64300001 1.437 41
-1.198 0.84799999 1.298 46
-1.194 0.77200001 1.341 46
-1.23 0.72000003 1.433 39
-1.2 0.625 1.459 52
-1.1720001 0.78899997 1.248 39
-1.196 0.73699999 1.325 35
-1.211 0.67299998 1.395 62
-1.229 0.60600001 1.4809999 39
-1.207 0.773 1.263 46
-1.239 0.72399998 1.353 41
-1.192 0.62800002 1.358 36
-1.232 0.574 1.473 43
-1.214 0.73799998 1.251 34
-1.243 0.69 1.341 60
-1.242 0.62 1.401 51
-1.205 0.52999997 1.431 34
-1.251 0.722 1.27 39
-1.194 0.62800002 1.272 35
-1.245 0.58700001 1.39 45
-1.2 0.49700001 1.415 35
-1.26 0.68900001 1.262 51
-1.253 0.62300003 1.319 43
-1.245 0.55299997 1.377 31
-1.2180001 0.47299999 1.426 42
-1.2130001 0.62599999 1.198 45
-1.266 0.59399998 1.319 43
-1.22 0.50999999 1.3380001 37
-1.228 0.447 1.4299999 46
-1.272 0.62 1.2410001 54
-1.265 0.55900002 1.304 38
-1.232 0.484 1.342 51
-1.216 0.41299999 1.41 44
-1.277 0.58600003 1.2309999 42
-1.2410001 0.51499999 1.267 47
-1.251 0.45899999 1.352 45
-1.179 0.37200001 1.359 41
-1.2819999 0.55299997 1.222 47
-1.253 0.48699999 1.268 45
-1.251 0.428 1.3430001 37
-1.233 0.36000001 1.416 45
-1.266 0.51099998 1.194 51
-1.263 0.458 1.267 42
-1.2 0.38100001 1.28 39
-1.23 0.33000001 1.406 33
-1.281 0.48300001 1.197 54
-1.262 0.42500001 1.256 34
-1.245 0.36500001 1.321 44
-1.212 0.29800001 1.382 35
-1.29 0.45199999 1.194 53
-1.206 0.37599999 1.192 40
-1.251 0.33700001 1.321 37
-1.215 0.271 1.381 42
-1.256 0.40799999 1.153 65
-1.268 0.36399999 1.245 47
-1.243 0.30500001 1.306 35
-1.1900001 0.23800001 1.349 45
-1.237 0.37 1.126 48
-1.27 0.333 1.239 38
-1.2410001 0.27599999 1.299 41
-1.1799999 0.20999999 1.335 30
-1.295 0.354 1.171 54
-1.2589999 0.30000001 1.222 34
-1.214 0.242 1.266 53
-1.205 0.18799999 1.3609999 33
-1.283 0.31900001 1.153 43
-1.258 0.27000001 1.215 47
-1.191 0.20999999 1.238 32
-1.209 0.162 1.364 38
-1.275 0.285 1.1390001 52
-1.211 0.23100001 1.165 47
-1.222 0.18799999 1.267 36
-1.205 0.13600001 1.359 40
-1.273 0.25400001 1.131 51
-1.212 0.20299999 1.161 33
-1.228 0.161 1.271 41
-1.211 0.11 1.364 40
-1.214 0.213 1.074 55
-1.239 0.178 1.183 41
-1.2309999 0.134 1.271 43
-1.216 0.083999999 1.37 38
-1.244 0.18799999 1.096 41
-1.245 0.15000001 1.1849999 41
-1.24 0.107 1.28 39
-1.202 0.057999998 1.355 39
-1.2589999 0.16 1.1059999 58
-1.244 0.122 1.183 46
-1.245 0.079999998 1.284 42
-1.177 0.030999999 1.3279999 34
-1.2640001 0.13 1.107 57
-1.2589999 0.093999997 1.1950001 47
-1.215 0.050999999 1.252 34
-1.211 0.0070000002 1.368 33
-1.273 0.101 1.112 46
-1.261 0.064999998 1.1950001 42
-1.191 0.024 1.228 37
-1.217 -0.017999999 1.377 46
-1.278 0.071999997 1.1160001 53
-1.211 0.035 1.147 38
-1.232 -0.001 1.271 33
-1.219 -0.044 1.382 39
-1.237 0.039999999 1.079 24
-1.214 0.0080000004 1.151 39
-1.245 -0.028999999 1.286 43
-1.174 -0.067000002 1.334 42
-1.214 0.011 1.059 45
-1.253 -0.02 1.189 42
-1.244 -0.056000002 1.288 43
-1.161 -0.090999998 1.324 29
-1.27 -0.017999999 1.108 43
-1.2589999 -0.048 1.1950001 52
-1.17 -0.079000004 1.2130001 39
-1.198 -0.12 1.369 35
-1.277 -0.048 1.115 54
-1.194 -0.072999999 1.136 45
-1.1950001 -0.107 1.243 28
-1.201 -0.145 1.378 41
-1.209 -0.074000001 1.058 47
-1.191 -0.1 1.136 34
-1.224 -0.13699999 1.277 42
-1.199 -0.171 1.381 43
-1.199 -0.102 1.051 36
-1.237 -0.133 1.183 46
-1.227 -0.164 1.285 40
-1.196 -0.19599999 1.383 47
-1.25 -0.13600001 1.099 43
-1.239 -0.162 1.189 45
-1.2309999 -0.193 1.294 40
-1.142 -0.212 1.3279999 37
-1.263 -0.168 1.115 47
-1.2460001 -0.191 1.2 49
-1.1569999 -0.207 1.223 46
-1.1440001 -0.237 1.336 34
-1.261 -0.198 1.117 58
-1.17 -0.207 1.132 45
-0.93900001 -0.189 0.99699998 151
-1.023 -0.235 1.201 54
-1.178 -0.214 1.049 52
-1.023 -0.205 0.995 1
-0.92699999 -0.208 0.98900002 2
-1.025 -0.25799999 1.211 68
-1.179 -0.243 1.056 10
-1.0089999 -0.226 0.98699999 1
-0.93099999 -0.23100001 1 4
-0.97299999 -0.26699999 1.1569999 39
-1.044 -0.241 0.94 59
-0.93900001 -0.233 0.92400002 51
-0.84200001 -0.228 0.91100001 9
0 0 0 8
-1.036 -0.26499999 0.94 11
-0.93000001 -0.25400001 0.92199999 9
-0.83099997 -0.245 0.90499997 10
0 0 0 1
-0.46900001 -0.132 0.42899999 1
-0.44499999 -0.132 0.44499999 5
-0.42500001 -0.13500001 0.46599999 7
0 0 0 8
-0.49200001 -0.15099999 0.45300001 3
-0.44800001 -0.14399999 0.45100001 6
-0.42399999 -0.145 0.46900001 9
0 0 0 9
-0.50300002 -0.167 0.46700001 3
0 0 0 0
0 0 0 0
0 0 0 9
-0.99000001 -0.35600001 0.92900002 10
-0.458 -0.171 0.47 2
-0.42199999 -0.16599999 0.47499999 9
0 0 0 10
-0.54500002 -0.20999999 0.51700002 4
-0.50099999 -0.20100001 0.51899999 6
0 0 0 0
0 0 0 11
-0.50700003 -0.20999999 0.486 3
-0.491 -0.20999999 0.514 4
-0.43799999 -0.19400001 0.50199997 6
0 0 0 0
-0.47 -0.208 0.456 3
-0.45899999 -0.208 0.48500001 3
-0.43599999 -0.205 0.50599998 7
0 0 0 11
0 0 0 0
-0.41999999 -0.20200001 0.44999999 3
-0.41299999 -0.206 0.48500001 3
0 0 0 0
-0.414 -0.207 0.412 8
-0.40099999 -0.205 0.435 2
-0.389 -0.205 0.46200001 3
0 0 0 5
0 0 0 0
0 0 0 0
0 0 0 0
0 0 0 4
-0.403 -0.226 0.41299999 8
-0.366 -0.208 0.40799999 6
-0.34400001 -0.2 0.41800001 3
0 0 0 3
0 0 0 0
0 0 0 0
0 0 0 0
0 0 0 4
-0.456 -0.285 0.48199999 9
-0.35100001 -0.222 0.403 6
-0.32300001 -0.207 0.40400001 6
0 0 0 3
0 0 0 0
0 0 0 0
0 0 0 0
0 0 0 0
-0.44999999 -0.31099999 0.493 12
-0.419 -0.292 0.49700001 8
-0.31200001 -0.22 0.403 6
0 0 0 6
-0.44100001 -0.32100001 0.49200001 11
-0.41 -0.30000001 0.495 8
0 0 0 0
0 0 0 0
-0.43200001 -0.33000001 0.49200001 12
-0.40200001 -0.308 0.49399999 8
-0.34200001 -0.264 0.456 7
0 0 0 7
-0.419 -0.33700001 0.48800001 11
-0.39399999 -0.31600001 0.493 8
0 0 0 0
0 0 0 0
-0.41 -0.345 0.48699999 11
-0.38600001 -0.32499999 0.49399999 8
-0.354 -0.29899999 0.49000001 8
0 0 0 7
-0.40200001 -0.35499999 0.48899999 11
0 0 0 0
0 0 0 0
0 0 0 0
-0.389 -0.36000001 0.484 11
-0.366 -0.338 0.48899999 8
-0.338 -0.31200001 0.486 8
0 0 0 9
-0.38100001 -0.37099999 0.48699999 11
0 0 0 0
0 0 0 0
0 0 0 0
-0.36899999 -0.37599999 0.484 11
-0.347 -0.35100001 0.48500001 8
-0.31999999 -0.322 0.48100001 8
