# .PCD v0.7 - Point Cloud Data file format
VERSION 0.7
FIELDS x y z intensity
SIZE 4 4 4 4
TYPE F F F F
COUNT 1 1 1 1
WIDTH 587
HEIGHT 1
VIEWPOINT 0 0 0 1 0 0 0
POINTS 587
DATA ascii
0.80599999 -0.19 0.85100001 12
0.76499999 -0.163 0.80500001 7
0.82300001 -0.15700001 0.86299998 1
0.889 -0.197 0.866 10
0.90399998 -0.153 0.94499999 8
0.82200003 -0.164 0.79699999 8
0.90600002 -0.133 0.94499999 8
0.87900001 -0.155 0.84899998 1
0.94 -0.18799999 0.84299999 11
0.97799999 -0.15000001 0.94199997 9
0.88200003 -0.156 0.787 7
0.95599997 -0.125 0.917 2
0.972 -0.126 0.86199999 6
0.92400002 -0.097999997 0.81599998 2
0.24699999 0.49200001 0.51200002 3
0.229 0.484 0.49900001 1
0.215 0.48300001 0.495 3
0.22 0.48800001 0.52600002 0
0.20200001 0.48300001 0.491 1
0.204 0.48300001 0.51499999 0
0.792 -0.171 0.79699999 13
0.81300002 -0.15700001 0.81400001 3
0.92900002 -0.15700001 0.926 6
0.94599998 -0.138 0.93900001 5
0.74699998 -0.17900001 0.81300002 12
0.74800003 -0.162 0.81 6
0.80699998 -0.16500001 0.796 13
0.82099998 -0.15899999 0.884 1
0.87199998 -0.15700001 0.85600001 1
0.88599998 -0.15099999 0.949 10
0.95899999 -0.15000001 0.93599999 11
0.91399997 -0.13500001 0.97500002 6
0.93300003 -0.197 0.86900002 10
0.91799998 -0.169 0.78399998 13
0.79000002 -0.17200001 0.80000001 12
0.85399997 -0.16 0.79100001 12
0.95200002 -0.152 0.80900002 1
0.79699999 -0.155 0.80199999 3
0.926 -0.152 0.85299999 1
0.977 -0.133 0.82700002 2
0.90700001 -0.15700001 0.90899998 2
0.93699998 -0.105 0.79000002 9
0.93000001 -0.14 0.92799997 7
0.926 -0.109 0.84600002 1
0.27599999 0.51700002 0.50099999 1
0.25799999 0.50999999 0.49000001 3
0.237 0.495 0.47099999 3
0.25400001 0.498 0.491 1
0.227 0.50199997 0.47299999 4
0.23999999 0.49700001 0.484 3
0.214 0.505 0.472 9
0.25600001 0.49599999 0.5 1
0.226 0.49700001 0.479 5
0.205 0.514 0.477 11
0.236 0.48300001 0.48100001 1
0.213 0.498 0.47600001 8
0.26100001 0.49900001 0.50999999 1
0.227 0.493 0.484 2
0.23999999 0.48500001 0.48899999 1
0.215 0.498 0.48300001 4
0.227 0.48800001 0.48300001 2
0.204 0.50199997 0.48100001 5
0.21699999 0.49599999 0.48500001 3
0.204 0.49900001 0.48100001 5
0.99400002 -0.149 0.76300001 9
0.92900002 -0.15800001 0.76800001 15
0.99699998 -0.148 0.82099998 1
0.96600002 -0.123 0.79100001 4
0.95099998 -0.1 0.77499998 2
0.273 0.56 0.41499999 4
0.245 0.53399998 0.39199999 8
0.28099999 0.57300001 0.43099999 4
0.23 0.53100002 0.38600001 8
0.245 0.52999997 0.39399999 7
0.211 0.51800001 0.373 5
0.28799999 0.57999998 0.442 4
0.23 0.528 0.38800001 5
0.20100001 0.528 0.37799999 8
0.244 0.52200001 0.39199999 5
0.301 0.60000002 0.458 5
0.20200001 0.52600002 0.37900001 8
0.25299999 0.53500003 0.403 5
0.219 0.52999997 0.389 3
0.236 0.53100002 0.39399999 10
0.22 0.52999997 0.38699999 3
0.205 0.52899998 0.38100001 10
0.898 0.46799999 0.5 7
0.88599998 0.48800001 0.49900001 7
0.86199999 0.52700001 0.477 8
0.88200003 0.51300001 0.50199997 5
0.81400001 0.523 0.45699999 13
0.88 0.484 0.51599997 7
0.84100002 0.51499999 0.48500001 6
0.78600001 0.53200001 0.44800001 12
0.85399997 0.495 0.505 7
0.80599999 0.51899999 0.47099999 10
0.76999998 0.54799998 0.44600001 11
0.829 0.50599998 0.49599999 9
0.79100001 0.53600001 0.46900001 10
0.75700003 0.565 0.44600001 10
0.88200003 0.50400001 0.537 7
0.80800003 0.51899999 0.48899999 9
0.77499998 0.551 0.46599999 10
0.73500001 0.57599998 0.44100001 11
0.85299999 0.51200002 0.52399999 6
0.80299997 0.542 0.49200001 7
0.75300002 0.56300002 0.461 9
0.71799999 0.58999997 0.43900001 10
0.833 0.52600002 0.51700002 6
0.78200001 0.55400002 0.486 7
0.74599999 0.58499998 0.46399999 9
0.69700003 0.60000002 0.435 10
0.81199998 0.53899997 0.509 7
0.76800001 0.57099998 0.484 7
0.80000001 0.55800003 0.50800002 2
0.75599998 0.58899999 0.484 4
0.77600002 0.56800002 0.49900001 0
0.301 0.59299999 0.31799999 9
0.30399999 0.59799999 0.32300001 6
0.20900001 0.60000002 0.29699999 11
0.38800001 0.59500003 0.22 12
0.36199999 0.58399999 0.213 11
0.38299999 0.58999997 0.22 11
0.34299999 0.58399999 0.20999999 11
0.36300001 0.58899999 0.21600001 9
0.32100001 0.57700002 0.205 10
0.38499999 0.59399998 0.222 11
0.34200001 0.58499998 0.212 10
0.36000001 0.58399999 0.214 9
0.292 0.58600003 0.204 12
0.38699999 0.59399998 0.22 12
0.34299999 0.58600003 0.211 10
0.308 0.588 0.207 8
0.36300001 0.58600003 0.212 12
0.252 0.56900001 0.19400001 10
0.34200001 0.58200002 0.207 11
0.308 0.58700001 0.205 7
0.278 0.59399998 0.204 9
0.289 0.58399999 0.20100001 9
0.21799999 0.56300002 0.189 9
0.30700001 0.58399999 0.2 9
0.27500001 0.58999997 0.2 9
0.23899999 0.57999998 0.19499999 9
0.292 0.58700001 0.197 10
0.27700001 0.59100002 0.19599999 10
0.23999999 0.58200002 0.192 8
0.205 0.57099998 0.18799999 8
0.237 0.57499999 0.184 9
0.205 0.57200003 0.184 8
0.204 0.56999999 0.178 9
0.90600002 0.40900001 0.15800001 21
0.91000003 0.403 0.17399999 19
0.90100002 0.433 0.15899999 20
0.89999998 0.42500001 0.17299999 19
0.89099997 0.454 0.15899999 20
0.90100002 0.417 0.18799999 18
0.89399999 0.447 0.17399999 17
0.87900001 0.47499999 0.15899999 20
0.89300001 0.43799999 0.18700001 18
0.87099999 0.461 0.171 15
0.87 0.49700001 0.16 21
0.90899998 0.43200001 0.20200001 21
0.89600003 0.465 0.189 17
0.87800002 0.49200001 0.17399999 18
0.85799998 0.51800001 0.16 20
0.89700001 0.45100001 0.2 21
0.88300002 0.484 0.18799999 17
0.86500001 0.51099998 0.17399999 17
0.852 0.542 0.161 21
0.88800001 0.47099999 0.199 21
0.87400001 0.505 0.18799999 17
0.852 0.53100002 0.17299999 17
0.838 0.56199998 0.161 20
0.87900001 0.49200001 0.197 21
0.861 0.52399999 0.186 17
0.84200001 0.55299997 0.17399999 17
0.82999998 0.58600003 0.163 21
0.86500001 0.50999999 0.19599999 21
0.84799999 0.54299998 0.185 17
0.833 0.574 0.17399999 17
0.80500001 0.597 0.161 6
0.85600001 0.53100002 0.19499999 21
0.84200001 0.56599998 0.186 17
0.82099998 0.59500003 0.17399999 17
0.84500003 0.551 0.193 21
0.829 0.58499998 0.185 17
0.833 0.56999999 0.192 22
0.82300001 0.58999997 0.191 22
0.44999999 0.59299999 0.122 13
0.44 0.59799999 0.126 12
0.36300001 0.58499998 0.114 10
0.34799999 0.59100002 0.114 10
0.35499999 0.58099997 0.113 7
0.38 0.59899998 0.118 8
0.34299999 0.59200001 0.114 8
0.29100001 0.55199999 0.104 7
0.35299999 0.58499998 0.113 7
0.37200001 0.59100002 0.113 11
0.33399999 0.58399999 0.111 7
0.29100001 0.56099999 0.105 4
0.26800001 0.57099998 0.105 9
0.296 0.546 0.102 8
0.32800001 0.57800001 0.105 10
0.287 0.56 0.102 4
0.26699999 0.57800001 0.105 8
0.226 0.546 0.098999999 9
0.28200001 0.55400002 0.096000001 8
0.26199999 0.57599998 0.102 7
0.223 0.55000001 0.097999997 7
0.20100001 0.55900002 0.1 9
0.25299999 0.56199998 0.093999997 9
0.21799999 0.54500002 0.093000002 7
0.20100001 0.56999999 0.098999999 7
0.215 0.54299998 0.086999997 9
0.90499997 0.366 0.054000001 17
0.91100001 0.39300001 0.035 20
0.91600001 0.37200001 0.074000001 17
0.90700001 0.39199999 0.054000001 16
0.90100002 0.414 0.035999998 20
0.92699999 0.373 0.092 20
0.91600001 0.396 0.074000001 17
0.89300001 0.41100001 0.054000001 16
0.889 0.435 0.035999998 20
0.91799998 0.39399999 0.090000004 20
0.89300001 0.41100001 0.071999997 15
0.88300002 0.43200001 0.054000001 16
0.87699997 0.45500001 0.035999998 20
0.89700001 0.40799999 0.088 19
0.89399999 0.43599999 0.071999997 17
0.87300003 0.45199999 0.052999999 16
0.86699998 0.477 0.035999998 20
0.884 0.42699999 0.086000003 19
0.87199998 0.44999999 0.07 15
0.85900003 0.47099999 0.052999999 16
0.85500002 0.498 0.037 20
0.88499999 0.45199999 0.086000003 20
0.86299998 0.47099999 0.068999998 15
0.85000002 0.493 0.052999999 16
0.84500003 0.51899999 0.037 22
0.86400002 0.46599999 0.082999997 19
0.86400002 0.49700001 0.068999998 17
0.83899999 0.51200002 0.052999999 16
0.82200003 0.53299999 0.037 9
0.85399997 0.48500001 0.082000002 19
0.84200001 0.51099998 0.068000004 15
0.83200002 0.53600001 0.052999999 15
0.84600002 0.50599998 0.081 19
0.84200001 0.537 0.068000004 17
0.83600003 0.52600002 0.079000004 21
0.82700002 0.55500001 0.067000002 6
0.82999998 0.54799998 0.079000004 21
0.43099999 0.57999998 0.032000002 13
0.44600001 0.57599998 0.039999999 11
0.433 0.58700001 0.039999999 12
0.366 0.57499999 0.030999999 10
0.384 0.58899999 0.035 10
0.35299999 0.58399999 0.032000002 10
0.32100001 0.56 0.029999999 9
0.336 0.57200003 0.033 9
0.29899999 0.551 0.029999999 9
0.391 0.597 0.037 10
0.35499999 0.588 0.035 9
0.36300001 0.58399999 0.034000002 11
0.287 0.54500002 0.029999999 8
0.25600001 0.53100002 0.028000001 8
0.294 0.542 0.030999999 8
0.30599999 0.546 0.028999999 9
0.24600001 0.52499998 0.028000001 8
0.22400001 0.52700001 0.028000001 8
0.25400001 0.52499998 0.028000001 8
0.27000001 0.53799999 0.026000001 8
0.214 0.51899999 0.027000001 8
0.20100001 0.542 0.028999999 8
0.223 0.52100003 0.026000001 8
0.233 0.523 0.023 9
0.204 0.52100003 0.021 8
0.875 0.40700001 0.014 21
0.884 0.435 0.013 23
0.87199998 0.45199999 -0.0080000004 15
0.87400001 0.45500001 0.012 23
0.86000001 0.47099999 -0.0080000004 15
0.84200001 0.484 -0.029999999 14
0.85900003 0.472 0.011 22
0.85000002 0.49200001 -0.0089999996 15
0.83600003 0.50700003 -0.030999999 3
0.85299999 0.493 0.0099999998 23
0.83700001 0.50999999 -0.0099999998 14
0.84200001 0.51200002 0.0080000004 23
0.428 0.56800002 -0.032000002 12
0.433 0.56900001 -0.023 11
0.41800001 0.583 -0.032000002 11
0.43700001 0.56800002 -0.015 10
0.42500001 0.58600003 -0.023 10
0.40400001 0.59200001 -0.030999999 11
0.42199999 0.57599998 -0.016000001 10
0.41299999 0.59899998 -0.024 10
0.382 0.58999997 -0.029999999 10
0.43399999 0.583 -0.0099999998 12
0.38299999 0.58499998 -0.023 10
0.35800001 0.583 -0.028999999 5
0.389 0.58600003 -0.016000001 10
0.37 0.59500003 -0.023 5
0.39500001 0.58499998 -0.012 11
0.338 0.57200003 -0.022 8
0.30599999 0.55500001 -0.026000001 9
0.30599999 0.546 -0.02 8
0.34799999 0.56999999 -0.013 7
0.31999999 0.56400001 -0.016000001 8
0.25600001 0.52200001 -0.023 9
0.26199999 0.52399999 -0.018999999 7
0.30000001 0.54500002 -0.014 8
0.27200001 0.53500003 -0.016000001 7
0.221 0.50999999 -0.021 8
0.226 0.51200002 -0.017999999 7
0.26300001 0.53600001 -0.016000001 9
0.23800001 0.528 -0.016000001 7
0.22499999 0.51599997 -0.016000001 8
0.207 0.52200001 -0.017000001 7
0.2 0.523 -0.017999999 8
0.903 0.38 0.035 22
0.89899999 0.40200001 0.035 23
0.88499999 0.419 0.035 23
0.88 0.43599999 0.003 15
0.866 0.43399999 0.035 22
0.86799997 0.45500001 0.0040000002 15
0.866 0.458 0.035 22
0.85799998 0.47499999 0.0040000002 15
0.84500003 0.48800001 -0.027000001 15
0.85500002 0.47799999 0.035 22
0.84899998 0.49599999 0.0040000002 15
0.83700001 0.509 -0.027000001 6
0.84399998 0.49700001 0.035 22
0.83700001 0.51499999 0.0040000002 15
0.83399999 0.51599997 0.035 23
0.81300002 0.528 0.034000002 17
0.42399999 0.565 -0.037999999 12
0.43099999 0.56800002 -0.017000001 11
0.417 0.58399999 -0.037999999 11
0.435 0.56999999 0.0020000001 11
0.39700001 0.58399999 -0.037 11
0.449 0.58200002 0.022 12
0.42899999 0.58899999 0.0020000001 11
0.41 0.59799999 -0.017000001 10
0.384 0.59500003 -0.035999998 10
0.43399999 0.588 0.021 12
0.41600001 0.60000002 0.0020000001 11
0.34999999 0.57300001 -0.034000002 6
0.36500001 0.58899999 -0.015 7
0.32100001 0.55400002 -0.032000002 9
0.37200001 0.59200001 0.0020000001 8
0.33399999 0.56699997 -0.014 9
0.30199999 0.55199999 -0.030999999 9
0.373 0.58600003 0.018999999 11
0.345 0.57800001 0.0020000001 8
0.31299999 0.56199998 -0.014 8
0.317 0.56099999 0.0020000001 8
0.25400001 0.52200001 -0.027000001 9
0.33000001 0.574 0.017000001 9
0.26199999 0.528 -0.012 7
0.27000001 0.53500003 0.001 8
0.219 0.51099998 -0.025 8
0.28299999 0.54900002 0.015 9
0.23 0.523 -0.011 7
0.233 0.51899999 0.001 8
0.245 0.53500003 0.014 9
0.20200001 0.52399999 -0.011 8
0.205 0.52100003 0.001 7
0.213 0.52700001 0.012 8
0.92400002 0.36300001 0.055 19
0.91500002 0.37099999 0.085000001 18
0.90600002 0.38 0.055 16
0.889 0.38699999 0.025 18
0.921 0.384 0.116 21
0.91399997 0.39500001 0.086000003 17
0.89700001 0.40099999 0.055 16
0.89499998 0.41600001 0.025 22
0.912 0.40400001 0.117 21
0.903 0.41499999 0.086000003 17
0.88700002 0.42199999 0.056000002 16
0.88599998 0.43799999 0.026000001 22
0.903 0.42300001 0.117 21
0.89700001 0.43700001 0.086999997 17
0.87699997 0.44299999 0.056000002 16
0.875 0.45899999 0.026000001 22
0.88999999 0.44100001 0.117 21
0.88 0.454 0.086000003 17
0.86500001 0.46200001 0.056000002 16
0.86400002 0.47999999 0.026000001 22
0.884 0.463 0.118 21
0.87300003 0.47499999 0.086999997 17
0.85399997 0.48199999 0.056000002 16
0.852 0.5 0.027000001 22
0.87 0.47999999 0.117 21
0.86199999 0.495 0.086999997 17
0.84399998 0.50300002 0.057 16
0.83899999 0.52100003 0.027000001 22
0.86199999 0.50099999 0.118 21
0.85299999 0.51599997 0.088 17
0.83200002 0.523 0.057 16
0.82800001 0.542 0.027000001 2
0.85100001 0.51999998 0.118 21
0.84100002 0.53500003 0.088 17
0.82300001 0.54400003 0.057999998 15
0.84100002 0.54000002 0.119 21
0.83399999 0.55800003 0.089000002 17
0.82599998 0.55599999 0.118 21
0.81599998 0.57300001 0.089000002 1
0.81599998 0.57599998 0.119 21
0.43900001 0.57200003 0.025 13
0.42899999 0.58700001 0.025 13
0.43599999 0.58999997 0.046999998 11
0.41499999 0.59799999 0.026000001 12
0.43599999 0.58600003 0.067000002 11
0.39300001 0.59500003 0.026000001 11
0.44499999 0.59100002 0.086999997 13
0.36700001 0.58499998 0.025 10
0.37200001 0.58600003 0.045000002 9
0.34299999 0.57800001 0.025 10
0.38499999 0.59799999 0.064999998 8
0.38999999 0.59600002 0.082999997 11
0.359 0.58700001 0.063000001 9
0.32300001 0.56599998 0.043000001 8
0.29300001 0.55199999 0.024 9
0.36199999 0.58099997 0.079999998 10
0.33500001 0.56599998 0.077 10
0.317 0.57599998 0.059999999 8
0.28099999 0.54900002 0.041000001 6
0.25099999 0.53299999 0.024 9
0.28999999 0.546 0.071000002 9
0.26499999 0.53899997 0.055 7
0.242 0.53500003 0.039000001 7
0.21799999 0.52700001 0.024 8
0.255 0.53600001 0.068000004 8
0.237 0.54400003 0.055 6
0.22 0.55199999 0.039999999 7
0.233 0.55299997 0.068000004 9
0.211 0.55299997 0.054000001 8
0.20299999 0.55000001 0.066 9
0.903 0.39700001 0.145 20
0.90200001 0.41299999 0.17399999 18
0.90700001 0.42500001 0.148 20
0.89700001 0.426 0.20200001 18
0.88599998 0.43099999 0.17299999 15
0.88999999 0.44400001 0.147 19
0.903 0.44299999 0.234 21
0.89499998 0.45100001 0.205 16
0.87400001 0.44999999 0.17299999 15
0.88200003 0.46700001 0.148 20
0.88700002 0.46000001 0.233 21
0.889 0.47299999 0.206 17
0.86299998 0.47 0.17399999 15
0.87099999 0.48800001 0.148 20
0.87900001 0.47999999 0.234 21
0.87699997 0.49200001 0.206 17
0.852 0.49000001 0.17399999 15
0.85900003 0.509 0.149 20
0.86699998 0.498 0.234 21
0.86699998 0.51300001 0.207 17
0.85799998 0.52100003 0.178 17
0.84600002 0.52899998 0.149 20
0.86299998 0.52100003 0.236 21
0.85500002 0.53200001 0.207 17
0.83399999 0.53299999 0.176 15
0.83499998 0.55000001 0.15000001 20
0.85399997 0.54100001 0.23800001 21
0.85000002 0.55500001 0.20900001 16
0.833 0.56 0.17900001 17
0.82599998 0.57300001 0.15099999 19
0.838 0.55599999 0.237 7
0.838 0.57499999 0.20999999 17
0.824 0.58200002 0.18000001 17
0.80000001 0.58499998 0.149 15
0.82800001 0.59600002 0.211 17
0.79400003 0.59899998 0.206 3
0.361 0.58200002 0.11 9
0.36500001 0.583 0.12800001 9
0.34400001 0.58499998 0.109 10
0.368 0.58200002 0.146 7
0.377 0.58899999 0.16599999 9
0.345 0.57499999 0.142 8
0.31799999 0.565 0.122 8
0.289 0.55199999 0.101 7
0.352 0.57700002 0.16 10
0.329 0.56699997 0.155 10
0.31999999 0.59200001 0.14300001 9
0.294 0.58499998 0.123 9
0.26499999 0.57099998 0.103 9
0.294 0.57499999 0.138 9
0.27000001 0.56800002 0.119 7
0.242 0.55599999 0.1 8
0.30899999 0.59200001 0.15800001 10
0.27700001 0.574 0.13600001 7
0.23100001 0.551 0.114 7
0.21600001 0.56699997 0.101 8
0.26199999 0.56199998 0.147 8
0.24699999 0.57599998 0.134 6
0.20299999 0.55599999 0.113 8
0.23800001 0.574 0.147 10
0.211 0.56300002 0.12899999 8
0.20299999 0.56 0.14 9
0.74400002 0.57800001 0.36500001 10
0.72600001 0.58899999 0.36300001 18
0.699 0.59299999 0.35600001 15
0.37599999 0.59299999 0.21799999 12
0.37200001 0.58700001 0.234 5
0.34900001 0.58099997 0.211 11
0.352 0.58600003 0.23100001 8
0.329 0.57999998 0.20900001 10
0.36000001 0.59799999 0.25400001 9
0.338 0.59299999 0.23100001 9
0.31099999 0.579 0.206 10
0.338 0.59200001 0.248 9
0.31099999 0.57700002 0.222 8
0.34400001 0.59500003 0.26699999 12
0.322 0.59399998 0.24600001 8
0.27700001 0.58099997 0.20299999 10
0.32800001 0.597 0.26499999 12
0.30199999 0.58700001 0.241 7
0.285 0.59200001 0.22400001 9
0.285 0.58600003 0.23800001 9
0.235 0.56199998 0.193 9
0.29300001 0.59299999 0.257 10
0.24699999 0.57999998 0.215 9
0.25400001 0.58899999 0.235 9
0.20299999 0.56 0.19 9
0.213 0.57200003 0.20900001 9
0.24600001 0.59299999 0.249 10
0.22400001 0.58899999 0.23100001 8
0.20999999 0.57599998 0.23800001 9
0.2 0.588 0.241 9
0.88999999 0.48500001 0.505 8
0.884 0.51200002 0.54500002 5
0.87699997 0.50400001 0.50400001 6
0.85699999 0.52200001 0.53600001 5
0.84899998 0.51499999 0.495 7
0.89200002 0.54100001 0.48500001 7
0.83099997 0.53200001 0.528 1
0.82099998 0.52399999 0.48699999 7
0.81400001 0.52100003 0.44999999 11
0.79900002 0.53600001 0.51499999 0
0.80500001 0.54000002 0.48500001 7
0.79699999 0.537 0.44800001 11
0.78399998 0.55199999 0.47999999 7
0.77399999 0.54900002 0.44400001 10
0.76200002 0.56400001 0.47499999 10
0.764 0.56999999 0.44600001 7
0.741 0.57499999 0.47099999 6
0.74299997 0.58200002 0.44299999 12
0.71700001 0.58999997 0.43599999 10
0.289 0.597 0.324 10
0.23999999 0.59799999 0.33399999 6
0.235 0.58200002 0.34200001 4
0.219 0.579 0.33700001 6
0.21799999 0.56400001 0.34400001 8
0.99699998 -0.155 0.76999998 9
0.292 0.56599998 0.47799999 0
0.266 0.54000002 0.43000001 3
0.25 0.53600001 0.40200001 5
0.26800001 0.51899999 0.45899999 0
0.257 0.52499998 0.43799999 2
0.243 0.52399999 0.41299999 5
0.23 0.52600002 0.39199999 5
0.259 0.52700001 0.461 1
0.242 0.52399999 0.433 5
0.23 0.52600002 0.41100001 5
0.242 0.51899999 0.44999999 3
0.22400001 0.51300001 0.41999999 4
0.213 0.52100003 0.403 4
0.20100001 0.52600002 0.38600001 4
0.229 0.51999998 0.44499999 3
0.205 0.49399999 0.419 5
0.82300001 -0.191 0.85900003 9
0.77100003 -0.162 0.80299997 7
0.847 -0.15899999 0.88 2
0.91399997 -0.152 0.94800001 9
0.838 -0.17299999 0.80800003 12
0.91600001 -0.132 0.949 8
0.84600002 -0.155 0.81400001 4
0.95999998 -0.155 0.921 5
0.912 -0.177 0.81699997 9
0.98100001 -0.13600001 0.93900001 10
0.89600003 -0.153 0.80000001 5
0.958 -0.168 0.79500002 10
0.93900001 -0.118 0.833 8
0.97399998 -0.147 0.80500001 2
0.92199999 -0.094999999 0.81599998 1
0.95999998 -0.123 0.79100001 7
