# .PCD v0.7 - Point Cloud Data file format
VERSION 0.7
FIELDS x y z intensity
SIZE 4 4 4 4
TYPE F F F F
COUNT 1 1 1 1
WIDTH 416
HEIGHT 1
VIEWPOINT 0 0 0 1 0 0 0
POINTS 416
DATA ascii
0.79799998 -0.16500001 0.801 13
0.86500001 -0.15800001 0.86299998 1
0.935 -0.149 0.92900002 11
0.46200001 0.38499999 0.60100001 4
0.45100001 0.39399999 0.59899998 6
0.43700001 0.40000001 0.59299999 4
0.42300001 0.40599999 0.588 4
0.417 0.41800001 0.59299999 4
0.38699999 0.40700001 0.565 12
0.37900001 0.417 0.56800002 13
0.368 0.42399999 0.56599998 12
0.35800001 0.43200001 0.56800002 10
0.34999999 0.44299999 0.57200003 8
0.34200001 0.454 0.57700002 4
0.33700001 0.46900001 0.588 0
0.73299998 -0.169 0.79699999 11
0.81599998 -0.17900001 0.80800003 13
0.77499998 -0.16 0.838 1
0.81300002 -0.15800001 0.801 6
0.861 -0.15800001 0.926 2
0.912 -0.156 0.89399999 2
0.97399998 -0.14399999 0.95099998 10
0.917 -0.127 0.97799999 2
0.458 0.34400001 0.597 4
0.454 0.35699999 0.60100001 5
0.45100001 0.37099999 0.60900003 7
0.456 0.40700001 0.597 5
0.44800001 0.38600001 0.61500001 7
0.44499999 0.41499999 0.59500003 5
0.433 0.38999999 0.60699999 4
0.43700001 0.426 0.59799999 5
0.41800001 0.39300001 0.597 4
0.40200001 0.41100001 0.56400001 8
0.40700001 0.40099999 0.59399998 6
0.389 0.417 0.56 14
0.396 0.40799999 0.59200001 6
0.38 0.42500001 0.56099999 13
0.37599999 0.405 0.57599998 8
0.37 0.433 0.56099999 13
0.368 0.41499999 0.57700002 6
0.359 0.44100001 0.56099999 13
0.361 0.426 0.58099997 6
0.34999999 0.44999999 0.56400001 10
0.35699999 0.44100001 0.59100002 4
0.34099999 0.46000001 0.56599998 11
0.35299999 0.456 0.60000002 0
0.333 0.47099999 0.57200003 6
0.32499999 0.48300001 0.57800001 1
0.85500002 -0.17299999 0.796 12
0.912 -0.16 0.77899998 14
0.79000002 -0.16599999 0.80000001 12
0.85399997 -0.153 0.79100001 3
0.99199998 -0.15099999 0.84299999 1
0.84500003 -0.15800001 0.85100001 1
0.96399999 -0.15099999 0.88800001 1
0.94 -0.12 0.79500002 8
0.93199998 -0.154 0.93400002 8
0.926 -0.123 0.84899998 0
0.94 -0.097999997 0.79299998 3
0.92500001 -0.132 0.92299998 4
0.45300001 0.40400001 0.58499998 9
0.37799999 0.46200001 0.50599998 12
0.45199999 0.42199999 0.59500003 7
0.41 0.428 0.546 5
0.389 0.45100001 0.52600002 7
0.366 0.46799999 0.50400001 12
0.43900001 0.42899999 0.58700001 5
0.39500001 0.43200001 0.53799999 7
0.377 0.458 0.52399999 8
0.35699999 0.47799999 0.50700003 14
0.40400001 0.41299999 0.55199999 7
0.38299999 0.43799999 0.53399998 8
0.36399999 0.463 0.51999998 10
0.345 0.48500001 0.50599998 13
0.39300001 0.421 0.54699999 13
0.377 0.45100001 0.53799999 10
0.34999999 0.46599999 0.514 9
0.333 0.491 0.505 13
0.384 0.43099999 0.54699999 13
0.36300001 0.45500001 0.53200001 9
0.34400001 0.47999999 0.52100003 10
0.32300001 0.50099999 0.509 12
0.37400001 0.43900001 0.54400003 13
0.34999999 0.46000001 0.52700001 9
0.32600001 0.47799999 0.50999999 8
0.31200001 0.509 0.50999999 13
0.36500001 0.44999999 0.54400003 13
0.34299999 0.472 0.53100002 9
0.32600001 0.50099999 0.52600002 10
0.303 0.51899999 0.514 12
0.34999999 0.45199999 0.53500003 12
0.33199999 0.47999999 0.52999997 9
0.31099999 0.50300002 0.52100003 9
0.29100001 0.52499998 0.514 12
0.345 0.46700001 0.542 13
0.32600001 0.495 0.53799999 9
0.30199999 0.51300001 0.52399999 9
0.28099999 0.53600001 0.51899999 12
0.33500001 0.47600001 0.54000002 13
0.31299999 0.5 0.53399998 7
0.292 0.52200001 0.52700001 6
0.271 0.546 0.523 1
0.32600001 0.486 0.54100001 12
0.30399999 0.51099998 0.537 6
0.28200001 0.53399998 0.53100002 6
0.315 0.49399999 0.53899997 10
0.30000001 0.52999997 0.54900002 2
0.308 0.509 0.546 5
0.28799999 0.53799999 0.54799998 2
0.30399999 0.53100002 0.55900002 0
0.991 -0.184 0.82499999 11
0.93099999 -0.152 0.77100003 9
0.95200002 -0.115 0.78100002 7
0.95099998 -0.093999997 0.77600002 0
0.458 0.33000001 0.37099999 10
0.44299999 0.33500001 0.366 11
0.421 0.34999999 0.36000001 11
0.428 0.35299999 0.38 9
0.40000001 0.36399999 0.35699999 10
0.40799999 0.36899999 0.377 9
0.38600001 0.38600001 0.36000001 10
0.32800001 0.55199999 0.428 13
0.31200001 0.55199999 0.42300001 13
0.30000001 0.56 0.42300001 13
0.31099999 0.54699999 0.42699999 11
0.28799999 0.56900001 0.426 13
0.32800001 0.54000002 0.435 11
0.30000001 0.55500001 0.428 11
0.27399999 0.57200003 0.42300001 13
0.31200001 0.54100001 0.43000001 11
0.28799999 0.56400001 0.42899999 11
0.26300001 0.583 0.428 13
0.271 0.56099999 0.42199999 12
0.25099999 0.59100002 0.43000001 13
0.31999999 0.54799998 0.43900001 13
0.292 0.565 0.43599999 11
0.26300001 0.57800001 0.43000001 10
0.234 0.588 0.42399999 13
0.27200001 0.55800003 0.42399999 11
0.25099999 0.58600003 0.43099999 10
0.221 0.59299999 0.42500001 13
0.29300001 0.56099999 0.43399999 13
0.26300001 0.57300001 0.43000001 9
0.235 0.58499998 0.426 10
0.248 0.57499999 0.42699999 11
0.222 0.59100002 0.426 9
0.26499999 0.57099998 0.42899999 12
0.237 0.58499998 0.42899999 9
0.219 0.579 0.41999999 11
0.23800001 0.583 0.426 12
0.46799999 0.30500001 0.26499999 10
0.447 0.322 0.26100001 10
0.458 0.315 0.27399999 9
0.42699999 0.33899999 0.259 10
0.458 0.31299999 0.28299999 9
0.44600001 0.338 0.27500001 8
0.48199999 0.30899999 0.301 9
0.405 0.354 0.255 9
0.47099999 0.317 0.29800001 10
0.44600001 0.336 0.28299999 8
0.42500001 0.35299999 0.271 8
0.384 0.36700001 0.252 9
0.45199999 0.33500001 0.29300001 9
0.42399999 0.34999999 0.278 8
0.403 0.368 0.26699999 7
0.366 0.384 0.252 9
0.428 0.34799999 0.285 9
0.403 0.366 0.27399999 8
0.38299999 0.38299999 0.26499999 7
0.34799999 0.40099999 0.25299999 9
0.405 0.36199999 0.278 9
0.38100001 0.37799999 0.26899999 8
0.36300001 0.39899999 0.26300001 7
0.329 0.417 0.25299999 9
0.38699999 0.37900001 0.27500001 9
0.36399999 0.396 0.26800001 8
0.345 0.41499999 0.26300001 7
0.368 0.39500001 0.27200001 9
0.34599999 0.41299999 0.26699999 8
0.32300001 0.42699999 0.25999999 7
0.34200001 0.403 0.264 9
0.32499999 0.42699999 0.26499999 8
0.32600001 0.42199999 0.264 9
0.50700003 0.273 0.186 9
0.48899999 0.28799999 0.17399999 9
0.495 0.28099999 0.183 9
0.49900001 0.27200001 0.191 8
0.46200001 0.303 0.17 9
0.49200001 0.28299999 0.19 8
0.47799999 0.30199999 0.18099999 8
0.44299999 0.32100001 0.168 9
0.46900001 0.29899999 0.185 8
0.46200001 0.322 0.18000001 8
0.48199999 0.292 0.19400001 9
0.42300001 0.338 0.16599999 9
0.44600001 0.31400001 0.18000001 8
0.44299999 0.34 0.178 8
0.456 0.30500001 0.18700001 9
0.40400001 0.35499999 0.16500001 9
0.42699999 0.33000001 0.178 8
0.419 0.35499999 0.175 8
0.44100001 0.32499999 0.185 9
0.382 0.36899999 0.164 8
0.41100001 0.34999999 0.177 8
0.398 0.36899999 0.17200001 7
0.42300001 0.34200001 0.18099999 9
0.361 0.38299999 0.163 8
0.39199999 0.36500001 0.17399999 8
0.375 0.382 0.17 7
0.40400001 0.35800001 0.178 9
0.345 0.40200001 0.164 8
0.37099999 0.37900001 0.171 7
0.352 0.39399999 0.167 7
0.384 0.373 0.175 9
0.352 0.39399999 0.17 7
0.366 0.389 0.17299999 9
0.34299999 0.40000001 0.169 8
0.38499999 0.37 0.086999997 8
0.38699999 0.36300001 0.090000004 7
0.39199999 0.35699999 0.093999997 7
0.40700001 0.35699999 0.097999997 8
0.366 0.37599999 0.089000002 7
0.37099999 0.37 0.092 7
0.38 0.36500001 0.093999997 8
0.35800001 0.377 0.090999998 6
0.45699999 0.31 0.13 9
0.44 0.32699999 0.13 9
0.43399999 0.33500001 0.114 7
0.421 0.34200001 0.12800001 9
0.41600001 0.35100001 0.114 7
0.39500001 0.36199999 0.097000003 7
0.40000001 0.35600001 0.127 8
0.39500001 0.36500001 0.112 7
0.368 0.37099999 0.094999999 7
0.38600001 0.375 0.12800001 8
0.375 0.38 0.112 7
0.36399999 0.38499999 0.126 8
0.498 0.28 0.17 9
0.49000001 0.287 0.185 8
0.48500001 0.292 0.21799999 9
0.48800001 0.29800001 0.20299999 8
0.477 0.29899999 0.168 9
0.46799999 0.30399999 0.182 8
0.46399999 0.30700001 0.215 9
0.46799999 0.315 0.20100001 8
0.44999999 0.31299999 0.164 9
0.44600001 0.31999999 0.18000001 8
0.447 0.32300001 0.213 9
0.44499999 0.33000001 0.198 8
0.42899999 0.33000001 0.162 9
0.42300001 0.33399999 0.177 8
0.42300001 0.33500001 0.20900001 9
0.426 0.345 0.19599999 7
0.40900001 0.347 0.162 8
0.40599999 0.35299999 0.177 8
0.40700001 0.35100001 0.20900001 9
0.40599999 0.361 0.19499999 7
0.38699999 0.36300001 0.161 8
0.38499999 0.36700001 0.176 8
0.389 0.366 0.208 9
0.38299999 0.37200001 0.192 7
0.36899999 0.38100001 0.161 8
0.36500001 0.382 0.176 7
0.37200001 0.382 0.207 9
0.36399999 0.38600001 0.191 7
0.34799999 0.39500001 0.161 8
0.34599999 0.39700001 0.176 7
0.35299999 0.39500001 0.206 9
0.34599999 0.40099999 0.191 7
0.336 0.40900001 0.206 9
0.47099999 0.308 0.26300001 10
0.46200001 0.317 0.28099999 8
0.458 0.32699999 0.32300001 10
0.46200001 0.33199999 0.30500001 8
0.447 0.32499999 0.259 10
0.43799999 0.331 0.27599999 8
0.43200001 0.33700001 0.315 10
0.43799999 0.345 0.30000001 8
0.426 0.34099999 0.257 9
0.41800001 0.34799999 0.27399999 8
0.41800001 0.35600001 0.315 10
0.41999999 0.36199999 0.29899999 8
0.40400001 0.35699999 0.25400001 9
0.398 0.36300001 0.27200001 8
0.39500001 0.36500001 0.30899999 10
0.39500001 0.37200001 0.29300001 8
0.38299999 0.373 0.25299999 9
0.37599999 0.37599999 0.26899999 8
0.37400001 0.37599999 0.30500001 9
0.377 0.38699999 0.292 8
0.361 0.38699999 0.252 9
0.354 0.389 0.26699999 8
0.359 0.39300001 0.30599999 9
0.359 0.403 0.292 8
0.34400001 0.40599999 0.25400001 9
0.33899999 0.40900001 0.27000001 8
0.34200001 0.40700001 0.30500001 9
0.34 0.41800001 0.292 8
0.322 0.419 0.25299999 9
0.31900001 0.421 0.27000001 8
0.32300001 0.41999999 0.30399999 9
0.31999999 0.43000001 0.29100001 8
0.30399999 0.43099999 0.303 9
0.30700001 0.454 0.29699999 6
0.44499999 0.33500001 0.36399999 11
0.43399999 0.34299999 0.36300001 11
0.41299999 0.36000001 0.361 11
0.40099999 0.36700001 0.35800001 10
0.38299999 0.38499999 0.359 10
0.36899999 0.389 0.35499999 10
0.347 0.493 0.47799999 13
0.345 0.50700003 0.461 6
0.336 0.49900001 0.477 13
0.33899999 0.52200001 0.46799999 9
0.33399999 0.53200001 0.447 9
0.324 0.50400001 0.47499999 13
0.32300001 0.52200001 0.46200001 10
0.32100001 0.537 0.44600001 9
0.317 0.55299997 0.43099999 12
0.30899999 0.52499998 0.458 12
0.308 0.54299998 0.44600001 10
0.30399999 0.51800001 0.47499999 13
0.29899999 0.53399998 0.46000001 8
0.294 0.54799998 0.44400001 9
0.287 0.56099999 0.428 13
0.29800001 0.53299999 0.48199999 12
0.289 0.54400003 0.463 9
0.28299999 0.55800003 0.447 10
0.27200001 0.56400001 0.42699999 12
0.285 0.53600001 0.479 11
0.28 0.55599999 0.46799999 10
0.26800001 0.55900002 0.44400001 11
0.25799999 0.56900001 0.42699999 12
0.27500001 0.54500002 0.48100001 13
0.26199999 0.55000001 0.458 8
0.25299999 0.56 0.44100001 8
0.25799999 0.53899997 0.47 11
0.25299999 0.56300002 0.46399999 8
0.24600001 0.579 0.45100001 10
0.23100001 0.58099997 0.42899999 12
0.25299999 0.55800003 0.48100001 9
0.245 0.57800001 0.472 10
0.227 0.57200003 0.44299999 7
0.219 0.59299999 0.435 12
0.23999999 0.56099999 0.479 11
0.227 0.56999999 0.461 6
0.21600001 0.583 0.44800001 6
0.23100001 0.57300001 0.484 3
0.221 0.59200001 0.47499999 5
0.206 0.597 0.45500001 7
0.226 0.59600002 0.49900001 1
0.792 -0.176 0.82800001 9
0.79100001 -0.15800001 0.824 5
0.89399999 -0.15899999 0.93000001 5
0.88700002 -0.193 0.85900003 9
0.91100001 -0.142 0.94599998 10
0.82300001 -0.161 0.79400003 7
0.91399997 -0.123 0.94800001 3
0.88999999 -0.154 0.85600001 1
0.95300001 -0.197 0.85699999 10
0.98100001 -0.148 0.94199997 8
0.88300002 -0.162 0.79100001 8
0.96200001 -0.124 0.92199999 1
0.93900001 -0.15099999 0.838 1
0.93800002 -0.154 0.778 8
0.92199999 -0.106 0.81800002 6
0.95899999 -0.112 0.79000002 8
0.449 0.352 0.597 5
0.44800001 0.366 0.60500002 5
0.447 0.38100001 0.61299998 9
0.447 0.39700001 0.62300003 7
0.45899999 0.41299999 0.59799999 4
0.43099999 0.39899999 0.611 7
0.449 0.42199999 0.597 6
0.40900001 0.39399999 0.59100002 8
0.44100001 0.43200001 0.59799999 4
0.40000001 0.40200001 0.58899999 9
0.40900001 0.419 0.56699997 4
0.39399999 0.412 0.59100002 12
0.38999999 0.417 0.55299997 9
0.40700001 0.44299999 0.54400003 4
0.375 0.40799999 0.574 13
0.38499999 0.43099999 0.55900002 10
0.38800001 0.44299999 0.53299999 7
0.36399999 0.41299999 0.56900001 12
0.373 0.435 0.55400002 10
0.37599999 0.449 0.53100002 8
0.38 0.46599999 0.51200002 9
0.359 0.42500001 0.574 11
0.36199999 0.44100001 0.55199999 9
0.366 0.458 0.53200001 10
0.36300001 0.46799999 0.505 10
0.35600001 0.43900001 0.583 5
0.35600001 0.45300001 0.55699998 9
0.347 0.454 0.51899999 7
0.35499999 0.47999999 0.50999999 13
0.34599999 0.44600001 0.58099997 5
0.34200001 0.456 0.551 6
0.34200001 0.46900001 0.52700001 8
0.34099999 0.48500001 0.50800002 13
0.34400001 0.46200001 0.59100002 4
0.336 0.46799999 0.55699998 8
0.33500001 0.48300001 0.53399998 10
0.32800001 0.49000001 0.50599998 12
0.34 0.477 0.60000002 0
0.324 0.47299999 0.55400002 6
0.32300001 0.48800001 0.53299999 6
0.32300001 0.50800002 0.51800001 13
0.31799999 0.48699999 0.56099999 4
0.31299999 0.498 0.53600001 8
0.31 0.514 0.51800001 13
0.30599999 0.51200002 0.54400003 4
0.29800001 0.52100003 0.51899999 10
0.296 0.52200001 0.54799998 0
0.28600001 0.52899998 0.52100003 10
0.27200001 0.53299999 0.51899999 6
